# .PCD v0.7 - Point Cloud Data file format
VERSION 0.7
FIELDS x y z rgb
SIZE 4 4 4 4
TYPE F F F U
COUNT 1 1 1 1
WIDTH 1091
HEIGHT 1
VIEWPOINT 0 0 0 1 0 0 0
POINTS 1091
DATA ascii
3.3454411 1.2183022 -0.41950741 4283390286
4.2790418 -0.30597484 -0.50851023 4283391575
3.3545699 1.2369009 -0.42063865 4283520845
4.280108 -0.28803623 -0.51000768 4283522647
3.2988212 1.2307544 -0.41236871 4283324747
4.2811346 -0.27234691 -0.51000768 4283062610
3.2991364 1.244666 -0.41110414 4283456081
4.2771044 -0.2556051 -0.51016527 4282996817
4.2328696 -2.2336276 -0.47939864 4284706156
3.2946861 1.2568007 -0.40987328 4283257419
4.2780128 -0.23992701 -0.51016527 4282798924
4.2551942 -2.2226708 -0.48340738 4284903789
4.3515978 1.6773969 -0.54125786 4284836711
4.2689853 -0.22298093 -0.50898296 4282864204
4.2533321 -2.2037761 -0.48658606 4284903278
4.3777823 1.706826 -0.54283261 4278389284
4.2744827 -0.20905708 -0.51106805 4283061583
4.2478786 -2.1812389 -0.48757052 4285166450
4.3762941 1.7247504 -0.54176444 4280420373
4.2802806 -0.19137214 -0.51166093 4283391061
4.252316 -2.161057 -0.48956028 4284839025
4.3702059 1.7408834 -0.5393014 4283914574
4.2808919 -0.17717716 -0.51166093 4283588438
4.2503462 -2.1423507 -0.49103153 4285035632
4.3775749 1.7633247 -0.53853893 4283060040
4.2666564 -0.16017967 -0.50988221 4283259473
4.2533355 -2.1243436 -0.49466756 4285167218
4.3805461 1.7832099 -0.53719634 4283718224
4.2769856 -0.14412415 -0.51256186 4282798409
4.2612286 -2.1078813 -0.49715683 4285101425
4.3693318 1.7982327 -0.53415823 4282666825
4.2578139 -0.12785655 -0.5086965 4282535752
4.2508307 -2.0833805 -0.49755546 4285233011
4.3767323 1.8200656 -0.53336143 4281484089
4.2779469 -0.11202198 -0.51256186 4282469957
4.2625184 -2.069768 -0.50221342 4285364599
4.3928719 1.8465934 -0.53366184 4284048470
4.2783284 -0.096341759 -0.51256186 4282339140
4.274837 -2.0555024 -0.50356823 4285364346
4.3678656 1.8549485 -0.5306077 4284179286
4.2737036 -0.079820789 -0.51196724 4281747004
4.273046 -2.0353928 -0.50581694 4285365116
4.3655314 1.8737755 -0.52867591 4284837218
4.2739673 -0.064156346 -0.51196724 4281549371
4.2715969 -2.014616 -0.50722724 4285627773
4.3823481 1.8982278 -0.52894044 4282538059
4.2940388 -0.047966871 -0.51434571 4281549371
4.283215 -2.0009377 -0.51023662 4286024311
4.3703938 1.9139216 -0.5258919 4284705630
4.2642212 -0.03200322 -0.51226658 4281549886
4.2766614 -1.9788131 -0.51191694 4283982675
4.3821206 1.9373151 -0.52557451 4284441693
4.2742414 -0.015665982 -0.51345927 4283390801
4.2749462 -1.9581258 -0.51329899 4284508769
4.3843184 1.9575282 -0.52415097 4284309338
4.2841988 0 -0.51465195 4287930003
4.2818494 -1.9423329 -0.5157609 4284180574
4.3090839 0.015041601 -0.51688164 4288062354
4.2657723 -1.917114 -0.51466745 4284049759
4.9593086 0.037219889 -0.5948903 4286219890
4.2777281 -1.9018841 -0.51766568 4284049758
4.9591484 0.054530885 -0.5948903 4286154354
4.2745018 -1.8834978 -0.52064306 4284114782
4.9441147 0.073352799 -0.59224087 4285430634
4.2724261 -1.8630261 -0.52116233 4284180826
4.9535322 0.091653228 -0.59515947 4285956978
4.283536 -1.849215 -0.52416092 4284180828
4.9680338 0.1110054 -0.59694856 4286483579
4.2856984 -1.8306582 -0.52685636 4284049758
4.9577713 0.12895793 -0.5948903 4287009923
4.2831426 -1.8110324 -0.52654463 4283983966
4.9572396 0.1479934 -0.5948903 4287601803
4.2802467 -1.7913436 -0.52865899 4284050016
4.9716525 0.16666406 -0.59580851 4287798928
4.2960162 -1.7785896 -0.53222561 4284049759
4.9509249 0.1850033 -0.59515947 4287996050
4.2839475 -1.7552283 -0.53156722 4284049759
4.9554844 0.20336442 -0.59315908 4288062100
4.2857938 -1.736796 -0.53341824 4284115552
4.2919574 -1.7210065 -0.53503239 4284246368
2.8760064 0.14015703 -0.34487918 4287798928
4.2843356 -1.698884 -0.53652608 4284049758
2.8407695 0.14887843 -0.34071687 4287996307
4.2810254 -1.6794395 -0.53777772 4284115551
2.8154523 0.15839408 -0.3372516 4288062100
4.2918968 -1.6647171 -0.53996539 4284246621
2.8099561 0.16841868 -0.33616656 4288127893
4.2977934 -1.6489077 -0.54157227 4284115549
2.7993791 0.17857473 -0.33498079 4288391067
4.2945423 -1.6287709 -0.54280883 4284115552
2.7690425 0.18683234 -0.33093905 4288456601
4.27706 -1.6042342 -0.54146928 4284115552
2.7484388 0.19604625 -0.32905191 4288719771
4.338696 -1.6083766 -0.55176246 4284050016
2.7379856 0.20442851 -0.32690775 4288982943
4.3863325 -1.6077745 -0.55872142 4284115552
2.7322123 0.21550958 -0.32583827 4289246627
4.4246845 -1.6034604 -0.56452048 4284115551
2.7214513 0.22470044 -0.32513431 4290823868
4.4680119 -1.5997797 -0.57094097 4284115549
2.715791 0.23473543 -0.32311592 4286879119
4.5346756 -1.6040317 -0.58122343 4284246368
2.7199137 0.2451385 -0.32322782 4286944397
4.5825033 -1.6020765 -0.58831638 4284246368
2.7090094 0.25464574 -0.32252738 4287009422
4.6447258 -1.6038426 -0.59725028 4284181345
2.7082257 0.26458943 -0.32110262 4279704095
4.7161388 -1.6091795 -0.60743576 4284181344
2.7072456 0.27499196 -0.32062772 4280430126
4.7126741 -1.5878217 -0.6079616 4281418038
2.7062135 0.2844345 -0.32110262 4280430124
4.6850982 -1.559433 -0.60716182 4284181345
2.7001688 0.29476279 -0.32004261 4288259493
4.7002783 -1.5444639 -0.61010921 4284181345
2.6991792 0.3041926 -0.31956851 4286550670
4.7057052 -1.5271604 -0.61183619 4284050785
2.6881268 0.31387991 -0.31792775 4286748301
4.711432 -1.509048 -0.61269969 4284181344
2.6870699 0.32326794 -0.31745538 4287404184
4.7067461 -1.4903557 -0.61319399 4284247138
2.6907339 0.33467171 -0.31756464 4280495919
4.7080064 -1.4690853 -0.6142993 4284378723
2.7042611 0.34690356 -0.31883365 4280364331
4.6989293 -1.4473749 -0.61416161 4284312931
2.7030263 0.35682011 -0.3183578 4279180827
4.6994996 -1.4278172 -0.61525637 4284312931
2.7117727 0.36760995 -0.31808475 4287077012
4.7139997 -1.4133708 -0.61821729 4284312931
2.7448406 0.38234308 -0.32212576 4286945939
4.6907439 -1.3867903 -0.61533171 4284444517
2.7384646 0.39315525 -0.32009995 4286086528
4.6955886 -1.3695285 -0.61703914 4284313188
2.7419746 0.40392163 -0.32019091 4280561199
4.7006054 -1.351429 -0.61874646 4284510820
2.7601936 0.41645452 -0.32248619 4280495915
4.6961117 -1.3306361 -0.61834335 4284444516
2.7293615 0.42203969 -0.31759724 4278193929
4.7050662 -1.316334 -0.62067717 4284510309
2.7424936 0.43485898 -0.31882626 4287273877
4.7055478 -1.2952402 -0.62175071 4284510822
2.750798 0.4465175 -0.31899419 4287208084
4.7005849 -1.2753588 -0.62133712 4284576103
2.7981222 0.46523336 -0.32418534 4286283395
4.7004461 -1.2559643 -0.62240267 4284510822
2.8063047 0.47717026 -0.3243272 4280495664
4.7097087 -1.2399628 -0.62388718 4284445029
3.2599175 0.56660175 -0.37523425 4294967017
4.7048335 -1.2193812 -0.62261653 4284576103
3.2676299 0.58087677 -0.37520263 4294375130
4.6997643 -1.1988285 -0.62219244 4284576103
3.2899859 0.59729856 -0.37742743 4293520339
4.7087259 -1.1827501 -0.62452334 4284576103
3.2877975 0.60995078 -0.37626019 4292665292
4.6984725 -1.161014 -0.62514383 4284510822
3.2709584 0.61923659 -0.37400195 4292402120
4.7075143 -1.1449572 -0.62578428 4284510822
3.385772 0.65444857 -0.38619533 4292008645
4.7069468 -1.1256945 -0.62598854 4284641893
3.3641119 0.66306174 -0.3815757 4291613635
4.7063012 -1.1064531 -0.62619096 4284641895
3.3859656 0.68088567 -0.38373798 4290889142
4.7102184 -1.0891715 -0.62703478 4284772711
3.3689733 0.69032544 -0.38088116 4291153084
4.7046952 -1.0688806 -0.62574852 4284838504
3.3470905 0.69863397 -0.37748602 4289115301
4.7084746 -1.0516059 -0.62659055 4284707688
3.373744 0.71772683 -0.37897208 4286484612
4.7123704 -1.0334954 -0.62743253 4284773481
3.351789 0.72590715 -0.37559068 4287799439
4.7112432 -1.014304 -0.62846994 4285429869
3.373502 0.74418187 -0.37590069 4286813062
4.7101855 -0.99602664 -0.62698317 4284706911
3.3611791 0.75439286 -0.37361652 4286812295
4.7138681 -0.97791135 -0.62782341 4280232737
3.358645 0.766765 -0.3712115 4289377960
4.3871551 -0.8933742 -0.58307499 4281087534
3.302659 0.76733768 -0.36295223 4288784794
4.3077979 -0.86000109 -0.57286459 4281088044
3.2806544 0.7749092 -0.3590585 4289771429
4.3063483 -0.84331101 -0.56992048 4280758568
3.3150153 0.78302544 -0.35800999 4290099878
4.3162732 -0.8468191 -0.56737018 4280890154
3.3276849 0.77254003 -0.35905528 4288850587
4.3139248 -0.86122429 -0.56353152 4281022253
3.3742592 0.76971012 -0.36375907 4289509289
4.4272017 -0.90313858 -0.57641351 4280956207
3.3674152 0.75517523 -0.36211145 4286747784
4.711062 -0.97818679 -0.60954577 4280364580
3.355721 0.7390312 -0.36054611 4286879109
4.7120538 -0.99814022 -0.60933352 4284837984
3.3486869 0.7246235 -0.35950255 4287405710
4.7185512 -1.0167392 -0.60806131 4282667589
3.3610494 0.71380001 -0.36174551 4286615685
4.7096896 -1.0346308 -0.60659474 4284904038
3.3636429 0.70147634 -0.36174551 4288719003
4.7108335 -1.0538594 -0.60469139 4284707686
3.3710012 0.69012791 -0.36286962 4291350463
4.7170262 -1.0734136 -0.60255718 4284838758
3.3540015 0.67323995 -0.36196619 4291679939
4.7081375 -1.0904219 -0.60109568 4284576360
3.3759611 0.66478509 -0.36407068 4292073414
4.713882 -1.1108402 -0.59979433 4284641896
3.4029627 0.65653926 -0.36609638 4292402120
4.7100835 -1.1281829 -0.59725845 4284576615
3.2928526 0.62278622 -0.35518554 4292731598
4.7062178 -1.1446419 -0.59641314 4284641895
3.3049979 0.61194855 -0.3562395 4292994767
4.7114215 -1.1659589 -0.59594107 4284576102
3.2973731 0.59804529 -0.35577041 4293848275
4.7023983 -1.1829059 -0.59279287 4284706918
3.260359 0.57841033 -0.35270351 4294309337
4.6982317 -1.2001843 -0.59110028 4284576102
2.9097049 0.50520861 -0.31508887 4287472024
4.7133317 -1.2215838 -0.59267056 4284510309
2.7988837 0.47490329 -0.30288845 4287208600
4.7089062 -1.2397515 -0.59012103 4284772711
2.7809348 0.46137816 -0.30125865 4281417017
4.7040901 -1.2586974 -0.58842123 4284706918
2.7433214 0.44432113 -0.29797816 4280364847
4.7089024 -1.2793804 -0.58876932 4284641895
2.7449827 0.43427145 -0.2974931 4280299054
4.709363 -1.2980589 -0.585958 4284641125
2.7269251 0.42068842 -0.29584593 4288982955
4.6905565 -1.3105094 -0.58332151 4284510310
2.7284489 0.41069087 -0.29584593 4287077014
4.6999784 -1.3335044 -0.58169484 4284444774
2.7397921 0.40164605 -0.29739535 4287077012
4.7141037 -1.3570917 -0.58234715 4284510309
2.7165878 0.38807902 -0.2952047 4278259982
4.7003355 -1.3700228 -0.57860488 4284510309
2.7031839 0.37557867 -0.29455298 4280299054
4.6995101 -1.3911662 -0.57748091 4284510310
2.714344 0.36699367 -0.2961041 4280429871
4.6993294 -1.4098663 -0.57635343 4284378724
2.6911399 0.35333967 -0.29294342 4288983214
4.6939774 -1.4279292 -0.57549709 4284312931
2.6923664 0.34346732 -0.29341713 4286944912
4.7083936 -1.4493904 -0.57610744 4284378724
2.683748 0.33190039 -0.29281431 4287076496
4.7079172 -1.4690576 -0.57324523 4284378724
2.6798472 0.32239902 -0.29274714 4285298295
4.7025962 -1.486333 -0.57238448 4284378724
2.6959875 0.31289011 -0.29436454 4279902505
4.7065048 -1.5074699 -0.57181233 4284312931
2.7069445 0.30411088 -0.29591823 4279509287
4.7007942 -1.5264738 -0.56836194 4284247138
2.703099 0.29317319 -0.29585278 4278190594
4.704524 -1.5476787 -0.56777561 4284313443
2.7041042 0.2832585 -0.29632732 4288259491
4.7042675 -1.5649015 -0.56661463 4284378207
2.7101691 0.27337748 -0.29639363 4288062110
4.6844735 -1.5783201 -0.56146049 4284509539
2.7209957 0.26439881 -0.29795253 4283982436
4.6741395 -1.5939384 -0.55917239 4284377953
2.7269399 0.25441071 -0.29849425 4282999390
4.6253443 -1.5989573 -0.55240119 4284181345
2.7278018 0.24440962 -0.29897225 4285037942
4.5592208 -1.593044 -0.54342479 4284246368
2.7286682 0.23392938 -0.29945025 4287603356
4.5017204 -1.5923747 -0.53560817 4284312161
2.7294552 0.22392246 -0.29992822 4290495416
4.449419 -1.5922465 -0.52673572 4284312161
2.7351229 0.21477853 -0.30095139 4288851357
4.3967209 -1.5924587 -0.51956469 4284312160
2.7408671 0.20416261 -0.30197629 4288588185
4.3484707 -1.5947576 -0.51297867 4284115809
2.7714148 0.19671282 -0.30428287 4288521622
4.3337259 -1.6065342 -0.51026458 4284181091
2.8118019 0.18823849 -0.30912945 4288258705
4.3000522 -1.612002 -0.50536954 4284115552
2.8273308 0.17837599 -0.31125948 4288061841
4.2895126 -1.6268634 -0.50161994 4284115552
2.8279111 0.16800888 -0.31175393 4287930514
4.297689 -1.6480073 -0.50084037 4284246368
2.8484941 0.15825813 -0.31294584 4287798671
4.2912021 -1.6653092 -0.49923363 4284246368
2.9729714 0.15424596 -0.32813466 4287732878
4.2947803 -1.6839707 -0.49870163 4284246368
4.9393144 0.23811635 -0.5450651 4288192912
4.2934432 -1.7016281 -0.49682096 4284115552
4.954915 0.22153518 -0.54757416 4288061841
4.2825837 -1.7163802 -0.49306527 4284181344
4.9608855 0.20271878 -0.54638976 4287798928
4.2902479 -1.7377293 -0.49304345 4284049759
4.9665308 0.18298241 -0.54780412 4287732878
4.2877703 -1.7576686 -0.49114677 4284246368
4.9622297 0.16374709 -0.54725629 4287601292
4.295239 -1.7791462 -0.49110487 4284115552
4.9577332 0.14541 -0.54757416 4287272586
4.284339 -1.7930564 -0.48814794 4284050271
4.9482746 0.12784669 -0.5464769 4286943621
4.2782106 -1.8080668 -0.4865267 4284116064
4.9585886 0.10819679 -0.5484398 4286548604
4.2849483 -1.8312222 -0.48483631 4284115552
4.9689059 0.089335106 -0.54953891 4285759088
4.2826838 -1.8497341 -0.48291123 4284115552
4.9693666 0.072859935 -0.54780412 4285299305
4.2857995 -1.8679674 -0.48230892 4284246368
4.9546051 0.053616077 -0.5470255 4285956977
4.2837071 -1.8857685 -0.48037145 4284245855
4.4528418 0.030310001 -0.49160972 4287799182
4.2805438 -1.9058208 -0.4784286 4284246368
4.2789783 0.01418968 -0.47240618 4288193427
4.2881165 -1.9262564 -0.47667053 4284180575
4.3843918 1.9557257 -0.48256949 4284310361
4.2789192 0 -0.473153 4287864975
4.2769117 -1.9391932 -0.47534648 4284049759
4.3734331 1.9307377 -0.4830724 4284442206
4.2788877 -0.01642983 -0.473153 4281021741
4.2745996 -1.9570644 -0.47256804 4283587927
4.3802481 1.9145936 -0.48557547 4285100904
4.2738295 -0.032075331 -0.47260344 4282928968
4.2405257 -1.9602962 -0.46712154 4284048727
4.3777161 1.8944068 -0.48872778 4283128914
4.2786269 -0.050035283 -0.473153 4282733129
4.2775731 -1.9992115 -0.46962404 4286285951
4.3665895 1.8697187 -0.48751834 4284442458
4.273468 -0.064148851 -0.47260344 4282602059
4.2800689 -2.0176985 -0.46896207 4286219906
4.3823357 1.8574836 -0.49103153 4284506972
4.2731905 -0.080557279 -0.47260344 4282667338
4.2818522 -2.0377538 -0.46746549 4285958017
4.3797045 1.8374615 -0.49249229 4284904289
4.2728662 -0.096218757 -0.47260344 4282798922
4.2652464 -2.0499747 -0.46400669 4285826431
4.3727088 1.8148129 -0.49342415 4279310873
4.2674975 -0.11249369 -0.47205395 4283193680
4.2623992 -2.0678713 -0.46201405 4285694332
4.3836918 1.800565 -0.4964239 4284573533
4.2869267 -0.12873076 -0.4742521 4283391059
4.2729588 -2.092376 -0.46063387 4285628539
4.3765111 1.7780067 -0.49733466 4283454798
4.2814336 -0.14502212 -0.47370255 4283193167
4.2651086 -2.1088743 -0.45814267 4285825402
4.3636093 1.7559292 -0.49852455 4283192139
4.2709408 -0.16034052 -0.47260344 4282995790
4.257565 -2.1245995 -0.45565131 4285759609
4.3746958 1.7409028 -0.50151682 4282857006
4.2851901 -0.17735507 -0.4742521 4282929995
4.2232885 -2.1268642 -0.45031577 4285496953
4.3769407 1.721476 -0.50180817 4282529086
4.2894754 -0.19328356 -0.4748016 4282864717
4.2552347 -2.1634748 -0.45208251 4285496951
4.3736272 1.7016892 -0.50402367 4284638045
4.268847 -0.20878145 -0.47260344 4283325014
4.2644391 -2.1897426 -0.45145822 4285365878
3.4793115 1.3397646 -0.4023948 4284310874
4.2829418 -0.22520904 -0.4742521 4283391575
4.2573633 -2.2039802 -0.44894814 4285299574
3.3028331 1.2579278 -0.38332084 4283586384
4.2770834 -0.24137263 -0.47370255 4283851610
4.2490768 -2.2204194 -0.44643793 4285036402
3.3121653 1.2469407 -0.38509539 4284507486
4.2761698 -0.2570473 -0.47370255 4283523161
4.2499242 -2.2407308 -0.44484955 4285101425
3.3444722 1.2451271 -0.3902092 4283521358
4.2801943 -0.27378723 -0.47350356 4284313441
3.3630295 1.2373539 -0.39371598 4283521354
4.2791619 -0.28947312 -0.47350356 4284048991
3.3487308 1.2181765 -0.39277557 4283718733
4.2730618 -0.30554724 -0.47295487 4283720026
3.3576555 1.2075065 -0.39519173 4283586636
4.2870269 -0.32234317 -0.47234991 4283456854
3.3901014 1.2044946 -0.40100592 4283586636
4.2509122 -0.33604714 -0.47001594 4283259989
3.4739947 1.2199801 -0.41234976 4283521358
4.2793703 -0.35408419 -0.47330272 4283391575
3.4268792 1.1886731 -0.40749466 4283456330
4.2830119 -0.37094906 -0.47310024 4284838505
3.3981111 1.1647587 -0.40546811 4281679932
4.2865744 -0.38709164 -0.47364721 4284706918
3.3831999 1.1464664 -0.40447181 4282009926
4.2653456 -0.40169173 -0.47071174 4279837985
3.3778231 1.1308594 -0.40459013 4283718484
4.2836308 -0.41925883 -0.47289601 4286812033
3.3771548 1.1162332 -0.4065091 4283718224
4.2720175 -0.43468904 -0.47255331 4286155135
3.3669887 1.0992008 -0.405424 4283652944
4.2656174 -0.44983995 -0.47050917 4286024061
3.3425474 1.0770371 -0.4044641 4283587151
4.2736573 -0.4672868 -0.47234991 4286154365
3.3416049 1.0632299 -0.40511608 4283718224
4.2669778 -0.48238906 -0.47180384 4285627508
3.3312438 1.0458643 -0.40522286 4283718222
4.2604022 -0.49822083 -0.46901193 4282798411
3.3349195 1.0336058 -0.40644163 4283718222
4.2732701 -0.51560903 -0.47139356 4285891192
3.3387277 1.0207515 -0.40766034 4283718222
4.2663264 -0.53139901 -0.47084919 4286220158
3.3229425 1.0038884 -0.40655252 4283652942
4.2843423 -0.54807687 -0.47227269 4285958015
3.3411241 0.99412781 -0.41073111 4283587149
4.2870188 -0.56668049 -0.47206146 4285759607
3.3207171 0.97482151 -0.40961781 4283784528
4.2849131 -0.58238935 -0.47206146 4285826169
3.3192618 0.96182233 -0.40963331 4283719762
4.2827268 -0.5988493 -0.47130671 4286548865
3.3324378 0.9511565 -0.41262498 4283719762
4.2804213 -0.6145305 -0.47206146 4286219900
3.3164835 0.93409544 -0.41146314 4283588178
4.2831922 -0.63172293 -0.47033718 4286220157
3.3148241 0.92052829 -0.41327208 4283719766
4.2807665 -0.64740509 -0.47109282 4286614143
3.3233004 0.90790528 -0.41507104 4283981907
4.2832427 -0.664612 -0.4708772 4285825142
3.3165672 0.89425749 -0.41507393 4284705632
4.2759495 -0.67953908 -0.46958151 4286680708
3.3005762 0.87636513 -0.41446277 4281942086
4.2732277 -0.69593936 -0.47033718 4285827199
3.2746761 0.85665214 -0.41321146 4282207812
4.2758002 -0.71092141 -0.4708772 4282535752
3.2681887 0.84156072 -0.41317773 4284048216
4.2780199 -0.72818178 -0.47065976 4281943613
3.3049307 0.83750367 -0.41862118 4284114009
4.2851977 -0.74557489 -0.47097892 4282799699
3.3126509 0.82655078 -0.42042232 4284048729
4.2823319 -0.7627995 -0.46946061 4280496418
3.3010576 0.81020659 -0.42096218 4284246108
4.2942352 -0.78039479 -0.47183195 4282931535
3.2557011 0.78643405 -0.41540131 4289837224
4.2715993 -0.79400778 -0.46892408 4281614388
3.2682102 0.77618676 -0.41780472 4288653977
4.2687211 -0.80889833 -0.46968237 4281549624
3.280143 0.76753885 -0.42139092 4288719256
4.2949481 -0.83096427 -0.47214323 4281482291
3.2927845 0.75596309 -0.42440116 4285037166
4.2773223 -0.84382987 -0.4697727 4281482549
3.3097897 0.74832171 -0.42627075 4287536788
4.3227963 -0.87084347 -0.47359008 4281350963
3.2929766 0.73124146 -0.42613298 4287471505
4.6946354 -0.96281636 -0.51553863 4281350965
3.3052344 0.72065765 -0.42915764 4286944648
4.6909866 -0.97999811 -0.51637501 4284773730
3.3027103 0.7074368 -0.43088654 4286615937
4.6921401 -0.99905711 -0.51607341 4285233001
3.2956214 0.69269425 -0.43020883 4289048736
4.698164 -1.0183542 -0.51714301 4284839274
3.3269846 0.68656343 -0.43638209 4289838254
4.6943073 -1.0364057 -0.51630396 4284970090
3.3342321 0.67472184 -0.43880039 4290035630
4.6953273 -1.0546938 -0.51683784 4284773994
3.3462243 0.66378415 -0.44246143 4290298286
4.6960011 -1.0738027 -0.51821256 4284839274
3.3824749 0.65809917 -0.44876757 4290495665
4.691843 -1.0918261 -0.51821256 4284839274
3.2823229 0.62554282 -0.43812376 4290890164
4.6923828 -1.1100972 -0.52127218 4284904551
3.2620158 0.62167275 -0.44189978 4290824371
4.6862807 -1.1095171 -0.53082216 4284641895
3.3323481 0.64834648 -0.45357066 4290363566
4.6852126 -1.090283 -0.53447247 4284707688
3.3298342 0.66113698 -0.45357066 4289904044
4.6936569 -1.0741287 -0.53838623 4284838504
3.3321683 0.67430425 -0.45482615 4289903275
4.6926227 -1.0549465 -0.54034907 4284707688
3.3295548 0.68709379 -0.45482615 4289443496
4.69133 -1.0366071 -0.5423066 4284707688
3.3026435 0.69477224 -0.45151109 4289311138
4.6947265 -1.019325 -0.54566061 4284839272
3.3048434 0.70789373 -0.45276397 4286154364
4.6934671 -1.000196 -0.54760903 4284969829
3.2875757 0.71740854 -0.45077237 4286484357
4.6870952 -0.98089284 -0.54898268 4284904290
3.294626 0.73221111 -0.45092207 4287405451
4.6809082 -0.96085238 -0.54951179 4281153073
3.2969077 0.74540913 -0.45040432 4286418558
4.2751074 -0.86123633 -0.50381291 4281350706
3.3036041 0.76026821 -0.45231682 4285957756
4.2732506 -0.84380144 -0.50551981 4281350957
3.2863183 0.76898384 -0.450333 4288785564
4.2711787 -0.82713884 -0.50722146 4281021740
3.2642081 0.77704203 -0.44651663 4288521109
4.2839074 -0.8125506 -0.50990152 4281876796
3.2515662 0.78723735 -0.44519755 4289376671
4.2865939 -0.79679495 -0.5121845 4282469444
3.2442749 0.79687029 -0.44337183 4283390288
4.2748771 -0.77764755 -0.5111928 4282469435
3.2601421 0.81526262 -0.44600314 4284244827
4.2823229 -0.76279783 -0.51405466 4283391059
3.2813737 0.83275312 -0.44870138 4284179288
4.2704563 -0.74377793 -0.51305068 4283390548
3.2592509 0.8398658 -0.44489878 4282998621
4.282855 -0.729774 -0.51498437 4281154099
3.2512066 0.8511188 -0.44424355 4279902516
4.265645 -0.7107631 -0.51489449 4287799189
3.2721691 0.86943388 -0.44633788 4282731588
4.2778759 -0.69592988 -0.51834625 4287339408
3.268882 0.88201207 -0.44574693 4283850837
4.2801895 -0.68097883 -0.51910263 4287272845
3.2656212 0.89459813 -0.44456506 4283719764
4.2725773 -0.66372085 -0.52017742 4287009927
3.2672462 0.90793008 -0.44403225 4283588178
4.2750039 -0.64729679 -0.52093208 4285825399
3.2732787 0.92316008 -0.44533059 4283653712
4.2823892 -0.63084084 -0.5222857 4284772714
3.2700229 0.93519384 -0.44414338 4283719503
4.2746816 -0.61294502 -0.52334893 4285299058
3.2856033 0.9533124 -0.445539 4283456333
4.2768092 -0.59726077 -0.52410263 4285693556
3.2915809 0.96876496 -0.44563276 4283652944
4.2790709 -0.58083475 -0.52410263 4285694067
3.2833312 0.97942752 -0.44439077 4283652942
4.2808981 -0.56511122 -0.52636361 4285300083
3.3037746 0.9980976 -0.44640166 4283390286
4.2729077 -0.54888815 -0.52590549 4285430642
3.3141139 1.0157567 -0.44711587 4283456079
4.2846527 -0.53292233 -0.52937806 4285759094
3.310338 1.0285208 -0.44590583 4283456081
4.2817402 -0.5158729 -0.52876955 4286022778
3.3066204 1.0406702 -0.44530085 4283521104
4.2884398 -0.50074089 -0.53013164 4285430642
3.3169229 1.0579273 -0.44599676 4283586897
4.2801924 -0.48312649 -0.53116828 4286747272
3.336808 1.0771164 -0.44917333 4283520591
4.2770014 -0.46689701 -0.53055638 4285102193
3.3377755 1.0909531 -0.44797012 4283520845
4.2735782 -0.45143363 -0.53069448 4285299055
3.3431273 1.1069283 -0.4480063 4283390288
4.2652979 -0.43325311 -0.53096539 4285430642
3.3533792 1.1239777 -0.44804752 4284969841
4.2666917 -0.41835278 -0.53171366 4283259475
3.3490386 1.1368454 -0.44804752 4281284920
4.2782874 -0.40140393 -0.5329445 4283324753
3.3686028 1.1572729 -0.44870299 4283324747
4.2796373 -0.38571218 -0.53369445 4283391059
3.397007 1.1816335 -0.45244983 4283324493
4.2710142 -0.36840791 -0.53395832 4283062610
3.4162755 1.2023903 -0.4536739 4283258700
4.2722425 -0.35274372 -0.53470653 4283128403
3.2953496 1.1727731 -0.43691617 4283258700
4.2783942 -0.33821964 -0.53532541 4282996817
3.3281729 1.1995285 -0.44002178 4283324493
4.2698226 -0.32030016 -0.53408772 4282996817
3.3283484 1.2140518 -0.43940228 4283323979
4.2706351 -0.30537373 -0.53632957 4282865233
3.3470099 1.2354407 -0.44185665 4283389259
4.2817264 -0.28889588 -0.5375725 4283062610
3.2919643 1.2275418 -0.43325713 4283454284
4.2728066 -0.27331465 -0.53632957 4283193682
4.2483988 -2.2627196 -0.5067578 4283981922
3.2870052 1.2414002 -0.43141747 4283389768
4.2786784 -0.25569919 -0.53844726 4283259475
4.2474775 -2.2422838 -0.50990242 4284179555
3.2969222 1.2576536 -0.43201378 4283324747
4.2695036 -0.24094485 -0.53794724 4283522645
4.2466192 -2.2219665 -0.51135629 4284442725
4.2704749 -0.22305873 -0.53794724 4283720024
4.2555714 -2.2039943 -0.51470214 4284507748
4.3743134 1.7063532 -0.57152534 4278192159
4.2811007 -0.20938076 -0.53919536 4283391061
4.2536926 -2.1851628 -0.51697302 4284902506
4.3818588 1.7287109 -0.57087141 4286673268
4.2767301 -0.19270924 -0.54006571 4282798411
4.2525716 -2.1649239 -0.51839685 4284902506
4.3802891 1.7466719 -0.5698269 4283520592
4.2625375 -0.17641751 -0.53818828 4282469959
4.2472148 -2.1417022 -0.52009779 4284902504
4.3787384 1.7646817 -0.56795496 4282928454
4.2681408 -0.1602354 -0.53881407 4282469446
4.2636843 -2.1304421 -0.52368045 4285165930
4.3859973 1.7872139 -0.56726682 4283784017
4.2784519 -0.14417356 -0.54156005 4282535239
4.2622275 -2.1102278 -0.52590871 4285033065
4.3796916 1.8033903 -0.56478691 4281610552
4.2739935 -0.12834239 -0.54093254 4282535750
4.2655888 -2.091537 -0.52784675 4283847765
4.3775911 1.8222153 -0.56289625 4282271807
4.2746429 -0.11193547 -0.53943992 4282469959
4.2729769 -2.0757678 -0.53033417 4284176216
4.3892813 1.8459854 -0.56442291 4284243539
4.2748361 -0.096263118 -0.54093254 4282272580
4.2715421 -2.0548363 -0.53336143 4283582794
4.3732924 1.8590554 -0.5607577 4284244568
4.2751746 -0.07984826 -0.54093254 4282403394
4.2743073 -2.0369086 -0.53528154 4282660924
4.2989192 1.8442955 -0.54951918 4284508253
4.2803984 -0.064252876 -0.54156005 4282074686
4.2769976 -2.0189881 -0.53719634 4283187266
3.9047801 1.6929867 -0.4977057 4281415218
4.2806134 -0.047816899 -0.54156005 4281812027
4.2800474 -2.0003679 -0.53828126 4284703836
3.8532939 1.6874688 -0.48969573 4281811767
4.2706556 -0.031306103 -0.54179579 4281153336
4.2735701 -1.9782883 -0.53904903 4283981905
3.8061426 1.6842666 -0.4823131 4284507736
4.2707419 -0.015653156 -0.54179579 4289179552
4.2761898 -1.9595984 -0.54258549 4284969578
3.7451715 1.6752962 -0.47325832 4284243545
4.2757306 0.00074625574 -0.5424251 4288061075
4.2740388 -1.9396894 -0.54389721 4283983712
3.8756492 1.7491086 -0.48822051 4283981143
4.3551645 0.015202453 -0.55173314 4287864462
4.2806101 -1.9246805 -0.54553556 4284114781
4.9651814 0.03639733 -0.62902611 4286220660
4.2782998 -1.9048219 -0.5468331 4284049759
4.9650049 0.055461947 -0.62902611 4286088821
4.2803588 -1.8869708 -0.54951918 4284180575
4.9547391 0.073510423 -0.62863415 4285233514
4.2782054 -1.8664349 -0.55079645 4283983966
4.9395423 0.092256784 -0.62674642 4286219896
4.2893105 -1.8525962 -0.5538289 4283983966
4.9490891 0.1105821 -0.62800491 4286811776
4.2916484 -1.8340855 -0.55486953 4283984223
4.9437785 0.1294574 -0.62651247 4287075207
4.2843566 -1.8124273 -0.55553448 4284049759
4.9531875 0.14787243 -0.62776929 4287863694
4.2817669 -1.7919798 -0.55758929 4284049759
4.9526925 0.16689384 -0.62690437 4288258452
4.2926221 -1.7780621 -0.56061858 4284114781
4.9421005 0.18553734 -0.62564927 4288390038
4.2897425 -1.7584771 -0.56103903 4284114781
4.2915907 -1.7400172 -0.56286317 4284180575
2.898994 0.13062853 -0.36659971 4287535499
4.2885437 -1.7205065 -0.56326956 4284180062
2.8787403 0.14029025 -0.36359 4288192659
4.2902308 -1.702088 -0.56508136 4284115551
2.8483317 0.14977323 -0.36083087 4288390038
4.296072 -1.6862075 -0.56830347 4283983966
2.8379767 0.15866753 -0.35907972 4288390808
4.2977037 -1.6678324 -0.56930161 4283983966
2.8125906 0.16906926 -0.35545459 4288521622
4.2804394 -1.6431066 -0.56783801 4284049758
2.7772667 0.17765085 -0.35107398 4288719001
4.2957163 -1.6300739 -0.57147294 4283984478
2.771709 0.1874982 -0.34996334 4288982173
4.2828941 -1.6072751 -0.57060122 4284050271
2.7512362 0.19672842 -0.34698221 4289047453
4.3444772 -1.6113822 -0.58126277 4284049759
2.7357159 0.2056995 -0.34463117 4289246114
4.3828621 -1.6073701 -0.58643389 4284180574
2.7299604 0.2158114 -0.344008 4289706149
4.4259262 -1.6039104 -0.59470618 4284049759
2.7242665 0.22541161 -0.34290767 4291416516
4.4736066 -1.602664 -0.602005 4284115551
2.7235229 0.23492485 -0.34243056 4280298027
4.5309644 -1.6036087 -0.61059511 4284049758
2.7175143 0.24587856 -0.34228536 4280495407
4.5834274 -1.6032975 -0.61859143 4284115552
2.7118332 0.25538868 -0.34023687 4280494894
4.6455989 -1.6050515 -0.62788945 4284115552
2.7107735 0.26579365 -0.34071225 4287011221
4.7078452 -1.6063496 -0.63722897 4284246368
2.714776 0.27623564 -0.34085661 4286747533
4.6944814 -1.5826044 -0.6381464 4280957739
2.6990519 0.28415805 -0.33852372 4286616461
4.7003121 -1.564497 -0.63987565 4284115552
2.6880834 0.29391825 -0.33681402 4284969843
4.6963806 -1.5440915 -0.64032036 4284312160
2.6821797 0.30369911 -0.33478269 4280364078
4.6975589 -1.5245167 -0.63967812 4284312161
2.6761711 0.31201047 -0.33463752 4280495157
4.7026887 -1.5071524 -0.64312589 4284247395
2.6848638 0.32347795 -0.33539808 4278192136
4.7082272 -1.4890167 -0.6448496 4284247138
2.6983743 0.33610028 -0.33676976 4287207571
4.7039723 -1.4687276 -0.64527494 4284378723
2.7072031 0.34680071 -0.33656979 4288129700
4.6998863 -1.4476699 -0.6456933 4284247138
2.7057269 0.35813755 -0.33656979 4289050034
4.7053027 -1.4295803 -0.64655167 4284313443
2.7096162 0.36779928 -0.33575001 4280032032
4.700305 -1.4110533 -0.64696115 4284444774
2.7082419 0.37820879 -0.33527276 4286679946
4.6916976 -1.3870723 -0.64670855 4284313188
2.7265463 0.39095849 -0.33722594 4287864220
4.6965322 -1.3698038 -0.64841622 4284313188
2.7250249 0.40142477 -0.33722594 4278192649
4.6921215 -1.3489898 -0.6479544 4284313188
2.7286172 0.41217744 -0.33638871 4280165929
4.7015848 -1.3330737 -0.65031815 4284444517
2.7270727 0.4226605 -0.33590707 4278850582
4.6969037 -1.3122827 -0.65070146 4284510307
2.7452295 0.43578398 -0.33735344 4286880661
4.701798 -1.294208 -0.65155262 4284444517
2.7484932 0.44712809 -0.33746982 4287207830
4.6967244 -1.2743114 -0.65192705 4284378724
2.7713761 0.46128348 -0.33998722 4288259238
4.7014728 -1.2562386 -0.65277642 4284510309
2.862627 0.48880357 -0.34937289 4280495406
4.7058249 -1.2389402 -0.65447503 4284510309
3.2521684 0.56642449 -0.39772657 4294836203
4.6960464 -1.2171038 -0.65332234 4284510309
3.2647686 0.58154386 -0.39836326 4293521365
4.7004638 -1.1990069 -0.65501571 4284378723
3.2775419 0.59622121 -0.39782676 4292994255
4.6994982 -1.1821764 -0.65519238 4284444517
3.285059 0.61062902 -0.39842933 4292467911
4.6993761 -1.1612372 -0.65621221 4284576102
3.2585447 0.61806482 -0.39431152 4291811266
4.703712 -1.1440325 -0.65536731 4284510309
3.3978331 0.65739512 -0.40961781 4291350974
4.7078476 -1.1259098 -0.65705711 4284706406
3.3806703 0.6675514 -0.40785477 4291022011
4.7023783 -1.1055309 -0.65655524 4284576615
3.3590062 0.67607433 -0.40311202 4291022011
4.7111144 -1.0893786 -0.65807259 4284445543
3.3467257 0.68698412 -0.40134731 4290758586
4.7104306 -1.0701836 -0.65739828 4284641895
3.3491833 0.70029086 -0.40073633 4289310625
4.7044983 -1.0498558 -0.65857363 4284641896
3.3514633 0.71420974 -0.40012181 4286484612
4.7132664 -1.0336919 -0.65840834 4284773481
3.3442414 0.7254948 -0.39715299 4287536269
4.712245 -1.0145197 -0.65857363 4285298537
3.332001 0.73624665 -0.39361799 4287208074
4.7062383 -0.99519193 -0.65722001 4284772704
3.3390396 0.75064814 -0.39416656 4286944648
4.7099128 -0.97709078 -0.65805954 4280692776
3.3607464 0.76847905 -0.3946203 4289970610
4.3884888 -0.89284813 -0.61187112 4281087534
3.2756503 0.76226771 -0.38377985 4288981660
4.309041 -0.86024928 -0.60113162 4281087791
3.3022332 0.78122348 -0.38362783 4289113499
4.3221388 -0.84562004 -0.60171837 4281022510
3.3124225 0.78363401 -0.37999886 4289179805
4.3225617 -0.84726942 -0.59633732 4280956971
3.2960472 0.76640779 -0.3777799 4288980632
4.3052077 -0.86104679 -0.5904938 4281153324
3.3375869 0.76318336 -0.38221785 4289904817
4.4382906 -0.90459388 -0.60678339 4281087533
3.3550377 0.75362957 -0.38388208 4286681991
4.7165337 -0.98018163 -0.642766 4280495909
3.353054 0.73967117 -0.38332734 4287142281
4.7130642 -0.99835426 -0.64024353 4284772190
3.3361869 0.7231378 -0.38229999 4287667855
4.7143278 -1.0166903 -0.64006054 4282930248
3.353585 0.71343827 -0.383371 4286615685
4.7110767 -1.0332117 -0.63753533 4284905067
3.3706379 0.7041629 -0.38623983 4289312167
4.7071409 -1.0530334 -0.63416803 4284707688
3.3635812 0.68922055 -0.38512513 4290956732
4.7180753 -1.0736525 -0.63358992 4284772711
3.3612132 0.67590821 -0.38456777 4290691763
4.7094107 -1.0907167 -0.63040972 4284772711
3.3832178 0.6668275 -0.38739905 4291548355
4.7054882 -1.1079954 -0.62956601 4284641895
3.3856392 0.65442294 -0.38739905 4292008645
4.7115564 -1.126797 -0.62832099 4284576613
3.2854755 0.6219849 -0.37684384 4292336327
4.70259 -1.1437595 -0.62598854 4284510822
3.2876682 0.60992676 -0.37742743 4292534219
4.6980672 -1.162654 -0.62514383 4284510822
3.2850974 0.59641105 -0.37686661 4293520339
4.6986938 -1.1819741 -0.6232475 4284576103
3.2578468 0.57913762 -0.37407926 4294637791
4.6993456 -1.2004689 -0.62219244 4284576103
2.9859283 0.51898009 -0.34262514 4278191875
4.7094178 -1.2223239 -0.62155348 4284576103
2.7869353 0.4738768 -0.32008964 4279639331
4.7048998 -1.240453 -0.61985511 4284510822
2.7740309 0.46073022 -0.31840199 4288258467
4.7054262 -1.2590549 -0.61793667 4284510822
2.7413182 0.44497871 -0.31494886 4287208080
4.705894 -1.2767992 -0.61771494 4284510310
2.742898 0.43443233 -0.31591827 4287339668
4.7107096 -1.2984301 -0.61556047 4284706918
2.7445261 0.42438459 -0.31543356 4278192391
4.6915636 -1.3125565 -0.61198521 4284510310
2.7608187 0.41605601 -0.31761372 4280495664
4.7016072 -1.3321934 -0.61300194 4284378724
2.7425551 0.40302908 -0.31632075 4280495407
4.7107 -1.3561118 -0.61144686 4284444516
2.7440276 0.39248767 -0.31680459 4288192674
4.7062793 -1.3717552 -0.61059129 4284378981
2.735662 0.38106456 -0.31518701 4287077012
4.7059398 -1.3912829 -0.6094963 4284444263
2.7074599 0.3665441 -0.31273943 4286945941
4.7145319 -1.4153243 -0.60962701 4284444517
2.7038062 0.35596281 -0.31264678 4278719245
4.6957717 -1.4266846 -0.60607022 4284312930
2.6853893 0.34305358 -0.31084135 4280102188
4.6995416 -1.4493599 -0.60472095 4284247395
2.6916122 0.33382693 -0.31093833 4280035883
4.713347 -1.4725575 -0.60543811 4284312931
2.6828439 0.32323456 -0.31027099 4285230960
4.6894517 -1.4830788 -0.60128736 4284312931
2.6889999 0.31303048 -0.31131384 4286682254
4.6980381 -1.506566 -0.59966338 4284247395
2.6999998 0.30380788 -0.31293049 4286683019
4.7065797 -1.5292604 -0.59974581 4284247395
2.7011497 0.29391575 -0.31245628 4287865249
4.6918101 -1.543496 -0.59595668 4284247138
2.7070351 0.28404316 -0.31445271 4280233262
4.7005229 -1.5645671 -0.59775352 4284247137
2.7081125 0.27412501 -0.31397769 4280167981
4.7228231 -1.5930769 -0.59786773 4283984992
2.7090907 0.26371929 -0.31445271 4278982678
4.679842 -1.5967947 -0.59137785 4284312161
2.7099843 0.25378308 -0.31492779 4286878604
4.5990658 -1.588076 -0.58017945 4284312161
2.7159405 0.24382468 -0.31502652 4286748047
4.5505767 -1.5926976 -0.57148552 4284115552
2.7265477 0.23470637 -0.3176071 4287010703
4.4887285 -1.589542 -0.56276071 4284312160
2.7273738 0.22423093 -0.31808475 4290825667
4.4454727 -1.5934604 -0.55559361 4284115551
2.7332213 0.21414922 -0.31818354 4289114529
4.3977675 -1.5945746 -0.54870272 4284181344
2.748791 0.20523527 -0.32039389 4288917150
4.3638182 -1.6012503 -0.54358524 4284115552
2.7644212 0.19573151 -0.32212576 4288588185
4.3070564 -1.598358 -0.53398985 4284049759
2.7799294 0.18659212 -0.32434389 4288588185
4.3010616 -1.6149495 -0.53238618 4284180575
2.8103077 0.17779447 -0.32830432 4288259219
4.2912116 -1.6275078 -0.53020859 4284181344
2.8258133 0.16837917 -0.33004135 4288127636
4.2938895 -1.6491296 -0.52894795 4284181594
2.8362985 0.15807714 -0.33169517 4288061843
4.288569 -1.6634263 -0.52734232 4284247135
2.8864603 0.15127298 -0.33698958 4287930516
4.2871165 -1.6818291 -0.52469689 4284115809
4.2903299 -1.7012609 -0.5242179 4284115551
4.9364576 0.22157323 -0.57698727 4288193940
4.2981553 -1.7226211 -0.52348626 4284115551
4.957191 0.20170118 -0.57930678 4288061843
4.277864 -1.7335825 -0.52019006 4284049758
4.9728866 0.1840857 -0.58017796 4287930516
4.2850819 -1.7565664 -0.51782864 4284115552
4.9683909 0.1648185 -0.58133423 4287798930
4.2876539 -1.7768811 -0.5173198 4284049759
4.9740267 0.14675678 -0.58104646 4287535756
4.2905288 -1.796527 -0.51599211 4283984478
4.9695449 0.12926418 -0.58046657 4287075207
4.27982 -1.8096275 -0.51381886 4284049759
4.9649572 0.10920271 -0.58075345 4286614395
4.2911296 -1.8347496 -0.51275903 4284049759
4.9702735 0.091962986 -0.58133423 4286220150
4.2759776 -1.8450667 -0.51085413 4284114781
4.9556928 0.072659455 -0.57959193 4285431146
4.2782993 -1.8655872 -0.50868618 4284180574
4.9657569 0.054603547 -0.58162022 4286220662
4.2853236 -1.8873732 -0.50785971 4284114782
4.424643 0.031662621 -0.51822358 4287930767
4.2782874 -1.9039216 -0.50540787 4284049759
4.2757483 0.014925238 -0.50077498 4287996818
4.2714415 -1.9196619 -0.50377327 4284181345
4.3767357 1.9532266 -0.51135629 4284112729
4.2756872 0 -0.50152123 4287798417
4.2830644 -1.9428841 -0.50344992 4284114784
4.369978 1.9310354 -0.51226658 4284441693
4.2806244 -0.015689377 -0.50210375 4280627755
4.2760739 -1.9586424 -0.50180817 4284048476
4.3813348 1.9168905 -0.51530373 4284771421
4.2755556 -0.033580825 -0.50152123 4281943615
4.2639027 -1.9738132 -0.49881759 4283982675
4.3701668 1.8920457 -0.51565462 4282734156
4.2855268 -0.047871787 -0.50119025 4281878336
4.2799058 -1.9993916 -0.49733466 4286089850
4.3716006 1.8754768 -0.51760715 4284706148
4.2801709 -0.064249463 -0.50210375 4282206274
4.2816219 -2.0193439 -0.49755546 4285890941
4.3745923 1.8551023 -0.51955432 4284179286
4.2799067 -0.079936646 -0.50210375 4282206785
4.2700148 -2.0330346 -0.49373129 4285825148
4.390276 1.8427978 -0.52313435 4284574042
4.284708 -0.096485414 -0.50119025 4282667336
4.2713737 -2.0538371 -0.49228808 4285627512
4.3737998 1.8170555 -0.52288395 4281615679
4.2793612 -0.11205901 -0.50060946 4282601545
4.2595735 -2.0674191 -0.48929241 4285561978
4.3758936 1.7982546 -0.52481246 4284639324
4.2788992 -0.12848972 -0.50060946 4282930508
4.2611308 -2.0875063 -0.487836 4285496183
4.3816633 1.7836647 -0.52646387 4283521358
4.288301 -0.14525475 -0.50177097 4283456339
4.2666869 -2.1105814 -0.48687771 4285167988
4.3651762 1.7574449 -0.5261628 4283125833
4.2778144 -0.16059856 -0.50060946 4283456852
4.2546992 -2.1240971 -0.48387906 4285233781
4.3673224 1.7379687 -0.52806842 4283057723
4.2720299 -0.17681038 -0.50152123 4283193682
4.2197137 -2.1278346 -0.47836778 4285496437
4.373105 1.7226118 -0.5305295 4279959553
4.2864108 -0.19314547 -0.50177097 4282995790
4.2612596 -2.167474 -0.48140362 4285233013
4.3750954 1.7031399 -0.53242695 4278260268
4.2806773 -0.20936006 -0.50119025 4282798411
4.2571735 -2.1869507 -0.47939864 4285166707
3.3329232 1.2847315 -0.40634215 4284835686
4.2749219 -0.22478734 -0.50060946 4282798411
4.2543011 -2.2042782 -0.47571585 4284970609
3.2910802 1.2541094 -0.40376422 4283323212
4.2889023 -0.24203959 -0.5023517 4282929997
4.2594948 -2.22681 -0.47635895 4284839023
3.2862263 1.2384851 -0.40385115 4283718483
4.2780719 -0.25716165 -0.50119025 4283259475
4.2384667 -2.2356355 -0.470698 4284772460
3.3047225 1.2309853 -0.40741137 4283455563
4.2769661 -0.27358073 -0.50193828 4283851610
3.3509567 1.2342402 -0.41444558 4283520843
4.2909737 -0.29027212 -0.50218189 4283917403
3.350868 1.2196161 -0.41511393 4283455565
4.2797456 -0.30602518 -0.50251985 4283654747
3.3410919 1.2022084 -0.41523871 4283390540
4.2687778 -0.32097101 -0.50060946 4284312931
3.4250913 1.2175996 -0.42638043 4283258954
4.2874918 -0.33893883 -0.50143123 4284114269
3.410162 1.1995698 -0.42594334 4283520845
4.281271 -0.35424146 -0.50085223 4283916633
3.3915615 1.1770858 -0.42427111 4283324747
4.2797923 -0.37067017 -0.50160199 4283587927
3.3721592 1.1565211 -0.42320368 4279770903
4.2884722 -0.387263 -0.50125879 4283588186
3.3711932 1.1430537 -0.42509952 4282601295
4.2720323 -0.40232146 -0.50027317 4283062096
3.3567114 1.1231399 -0.42458135 4280957488
4.2803416 -0.41969118 -0.50143123 4285693814
3.3510439 1.1082518 -0.42462245 4283717454
4.2788615 -0.43538544 -0.50068063 4286285693
3.3455052 1.0928334 -0.42465657 4283717454
4.2820973 -0.45233357 -0.50125879 4286417279
3.2833259 1.0585871 -0.41807762 4283521358
4.2755609 -0.46749488 -0.49992993 4286021755
3.3152812 1.0554914 -0.42411599 4283456079
4.2836041 -0.48502594 -0.50108445 4282997071
3.3144329 1.041222 -0.42472368 4283587151
4.2817106 -0.50071263 -0.5018369 4286944650
3.299125 1.0231429 -0.42350245 4283718224
4.2701621 -0.51447791 -0.49992993 4286483330
3.2648528 0.99878883 -0.42042232 4283652431
4.2779193 -0.53284299 -0.50108445 4286220927
3.3109629 0.99963868 -0.42833668 4283717970
4.2759275 -0.54927611 -0.50033206 4286154365
3.3146331 0.98687536 -0.42954391 4283652942
4.2887449 -0.56690866 -0.50130635 4285956986
3.3133235 0.97327918 -0.43013313 4283652942
4.2817011 -0.58271396 -0.49997658 4285628021
3.2787662 0.94946766 -0.4263806 4283851350
4.2795367 -0.59840322 -0.49997658 4285299055
3.3344104 0.95234901 -0.43561879 4283587665
4.2771211 -0.61481863 -0.50073075 4285824630
3.3471174 0.94335407 -0.43807909 4283718222
4.2798395 -0.63122845 -0.50055128 4285956986
3.278713 0.9111166 -0.42989299 4283719251
4.2776961 -0.64617705 -0.49979621 4285825142
3.3011794 0.90371978 -0.43359438 4283719251
4.2751541 -0.6633569 -0.49904117 4285956985
3.3186986 0.89483225 -0.43787932 4283981905
4.2827096 -0.67984706 -0.49943018 4286812294
3.3361883 0.88644415 -0.4409799 4279309840
4.2753725 -0.69475669 -0.49810216 4287272846
3.3538122 0.87735415 -0.44409075 4282271826
4.2676101 -0.71185613 -0.49677581 4286614918
3.3184364 0.85511708 -0.44020441 4283522911
4.2844734 -0.73081923 -0.49981579 4281879617
3.2925568 0.83497953 -0.4387536 4284179802
4.2721949 -0.74408072 -0.49791649 4282467628
3.2858243 0.8204664 -0.43865478 4284376154
4.2741494 -0.76211166 -0.49772912 4280559121
3.2647994 0.80191159 -0.43603033 4284179802
4.2811518 -0.77878898 -0.49962759 4281876256
3.3299291 0.80559462 -0.44678265 4290231212
4.2733316 -0.79432976 -0.49829862 4282009405
3.2943969 0.7830134 -0.44279209 4288259219
4.2802377 -0.8118546 -0.49867719 4281877050
3.2825952 0.76690412 -0.44320071 4288457111
4.3013883 -0.8329891 -0.502285 4280759339
3.3043685 0.76044416 -0.44639954 4285365876
4.2887306 -0.84685814 -0.49962014 4281284910
3.3021247 0.74658871 -0.44811055 4286484097
4.3537116 -0.8770715 -0.50679344 4281350706
3.3000517 0.73281252 -0.44804442 4287470729
4.6958814 -0.96392596 -0.54787886 4281153327
3.28304 0.71641874 -0.44776267 4286418819
4.6923323 -0.98198879 -0.54620546 4284838496
3.2953057 0.70585078 -0.45025992 4286351743
4.6934671 -1.000196 -0.54760903 4284969829
3.302489 0.69473976 -0.45268914 4289442724
4.6993942 -1.0203385 -0.54790354 4284773733
3.3193805 0.68499422 -0.45704967 4289443242
4.690773 -1.0364841 -0.54733753 4284642406
3.3314641 0.67416173 -0.4601658 4289771689
4.6915112 -1.055557 -0.54874277 4284838505
3.343395 0.66382945 -0.46329227 4289838251
4.6972961 -1.0749617 -0.54987657 4284641896
3.3553262 0.65281713 -0.46702549 4290034603
4.6882024 -1.0918415 -0.55014986 4284707688
3.2796021 0.62561756 -0.45794418 4290560945
4.6841693 -1.1090173 -0.55014986 4284707689
3.2835174 0.62636441 -0.46562567 4290297773
4.6925092 -1.1118568 -0.5613867 4284641896
3.3489273 0.65157217 -0.47766501 4289903017
4.6911421 -1.0933892 -0.56585306 4284641896
3.3318303 0.6615333 -0.47558516 4289640358
4.6899824 -1.0741493 -0.56946868 4284707688
3.3341186 0.67530459 -0.47627845 4289311910
4.6886549 -1.0557741 -0.57223636 4284707686
3.2975936 0.68049824 -0.47201318 4289246115
4.6925769 -1.0377417 -0.57307518 4284970090
3.3143384 0.69723248 -0.47478974 4289179552
4.6863523 -1.0183632 -0.57440227 4284708201
3.2875898 0.70479816 -0.47014543 4286285691
4.6849794 -0.99924213 -0.57715207 4285100388
3.2849047 0.71682566 -0.47073227 4286352513
4.6980309 -0.98403728 -0.58086163 4285232741
3.2822881 0.72946906 -0.4695586 4287338892
4.6868901 -0.96293288 -0.5815649 4281153327
3.2987823 0.74643821 -0.47232479 4286484097
4.2861829 -0.86424601 -0.53454506 4281153324
3.2863727 0.75630271 -0.47094169 4286419334
4.2890468 -0.84847623 -0.53683442 4281153578
3.2787027 0.7678054 -0.46966243 4288061073
4.2873087 -0.83103895 -0.53698736 4280495656
3.2856379 0.78153747 -0.4710438 4288521364
4.2757497 -0.8117764 -0.53591627 4282008636
3.2826338 0.79475915 -0.46986488 4289573534
4.2832985 -0.79695588 -0.53880864 4281878073
3.3375494 0.82039839 -0.47813231 4284245081
4.2763786 -0.77869177 -0.53909862 4282008636
3.3489506 0.83684987 -0.47899422 4284310874
4.2786589 -0.76445675 -0.54137444 4281942842
3.2929242 0.83690804 -0.47024876 4284179288
4.2719545 -0.74480712 -0.54089528 4282205244
3.2848909 0.84830731 -0.46956331 4290495681
4.2792668 -0.72993112 -0.54378724 4288259483
3.277277 0.8585549 -0.46769527 4281283390
4.2672634 -0.71103275 -0.54267788 4287996568
3.2549613 0.86546993 -0.46496022 4284047700
4.2744555 -0.69613934 -0.54556781 4287733396
3.3330648 0.89995402 -0.47537911 4283850069
4.2672043 -0.67814928 -0.54507208 4287075466
3.3534698 0.91929305 -0.4787893 4283718735
4.2644773 -0.66170025 -0.54670596 4286746501
3.2931273 0.91574132 -0.46821871 4283718735
4.2816048 -0.64753187 -0.54934698 4286417279
3.2943544 0.92972475 -0.46889728 4283587919
4.2738509 -0.63034528 -0.55035049 4285234033
3.2910817 0.94183791 -0.46770236 4283915601
4.2711158 -0.61471629 -0.54971862 4284510567
3.330338 0.96692234 -0.47318876 4283586636
4.2683516 -0.59683925 -0.55134344 4284378724
3.3366072 0.98138416 -0.47332677 4283587147
4.2752275 -0.58259296 -0.55273098 4284443746
3.2710803 0.97639483 -0.46336988 4283652429
4.2725196 -0.5647639 -0.55284786 4284838505
3.3101428 1.0019131 -0.46821538 4283390286
4.27948 -0.5489732 -0.55423707 4285561715
3.3162773 1.0157866 -0.46955696 4283325004
4.276443 -0.53190118 -0.55510432 4285562227
3.2699964 1.0153608 -0.46172708 4283324493
4.2782679 -0.51621205 -0.55585647 4285168240
3.346215 1.0544155 -0.47186187 4283390288
4.2996287 -0.50204736 -0.5606817 4284839275
3.2954865 1.0504565 -0.46519715 4283259213
4.2766352 -0.48499283 -0.55747044 4284575849
3.3199553 1.0723164 -0.46736929 4283324493
4.2834611 -0.46760219 -0.55886483 4286089342
3.3255787 1.0876091 -0.46747574 4283258702
4.280118 -0.45136917 -0.55897284 4285760634
3.3357241 1.1051232 -0.46762228 4283918434
4.2865582 -0.43541268 -0.56112087 4284181604
3.3455529 1.1226537 -0.46960095 4281941570
4.2782326 -0.41797665 -0.56057972 4283983714
3.3416479 1.134987 -0.46775314 4283257932
4.2747993 -0.40182933 -0.55993313 4284180575
3.356169 1.1543113 -0.46914214 4283324493
4.2809558 -0.385831 -0.56283039 4283522647
3.3941269 1.1812959 -0.47441196 4283389518
4.2671986 -0.37032983 -0.56237799 4283324755
3.3620827 1.1833167 -0.46924165 4283389772
4.2833128 -0.3551631 -0.56508094 4283259989
3.2923102 1.1736341 -0.45705476 4283455048
4.2848411 -0.33872932 -0.56358063 4283456852
3.3158367 1.1963902 -0.46032935 4283323977
4.2810268 -0.32114065 -0.56442916 4283456852
3.3162377 1.2102902 -0.4597446 4283258184
4.2820234 -0.30618805 -0.56517839 4283522647
3.3354781 1.2305228 -0.46111172 4283323977
4.2878652 -0.29081365 -0.56733125 4283325782
3.3025007 1.2340975 -0.45663768 4283193420
4.2890453 -0.27285016 -0.56733125 4283391059
4.2404957 -2.2604108 -0.53475904 4283914574
3.3028917 1.2480587 -0.45481506 4283323464
4.2751722 -0.25623849 -0.56536812 4283325266
4.2445846 -2.2417037 -0.53588164 4284111693
3.2800574 1.2525321 -0.45164713 4283586636
4.2809753 -0.24009317 -0.56677091 4283391061
4.2523561 -2.2259138 -0.54007035 4283977797
4.2867374 -0.22540863 -0.56742615 4282930510
4.247004 -2.2033188 -0.54089838 4284175428
4.3798189 1.7102624 -0.59982437 4280098338
4.2724843 -0.20895934 -0.5669536 4283259473
4.2638478 -2.1913202 -0.54620546 4284702031
4.3875566 1.7318438 -0.60007608 4284772199
4.2881103 -0.19322205 -0.56892443 4283522645
4.258316 -2.1687841 -0.54700971 4284569679
4.371758 1.7450391 -0.59799254 4282797633
4.2737656 -0.17613502 -0.56844676 4283325266
4.2480717 -2.1439943 -0.54888797 4282989620
4.3934174 1.7723806 -0.59763932 4282862913
