# .PCD v0.7 - Point Cloud Data file format
VERSION 0.7
FIELDS x y z rgb
SIZE 4 4 4 4
TYPE F F F U
COUNT 1 1 1 1
WIDTH 1126
HEIGHT 1
VIEWPOINT 0 0 0 1 0 0 0
POINTS 1126
DATA ascii
53.606998 15.503276 -3.7553985 4291800731
51.044365 -7.2192478 -2.7378347 4290554524
53.579792 15.708441 -3.7379231 4291603865
53.398762 15.868135 -3.7097943 4291603864
51.168457 -6.6547036 -2.7945228 4289896596
33.678558 10.283715 -2.3203683 4291538071
51.82526 16.250986 -3.5598922 4291342235
51.785549 16.447243 -3.5422339 4290948506
51.669098 16.61898 -3.5193851 4290817947
51.832611 16.891457 -3.5349145 4290686361
29.029169 9.684864 -1.9628602 4289239931
66.608971 -6.6602006 -3.7308693 4289567631
30.108055 10.173448 -2.0272985 4288451947
67.432983 -6.4930577 -3.7756653 4289633937
82.470444 28.203785 -5.5294471 4287731043
67.738777 -6.2600884 -3.8271446 4290094228
82.466446 28.540451 -5.5208645 4287072859
82.391037 28.869076 -5.4926009 4285297479
67.493019 -5.73873 -3.8345001 4289699215
82.257477 29.193546 -5.4608774 4286218835
67.110565 -5.4585361 -3.8116097 4289831056
82.398666 29.551678 -5.4153762 4286349390
67.891869 -5.2597542 -3.8667316 4289962387
51.285259 -27.984858 -2.3261123 4287993239
67.577133 -4.9862709 -3.8477392 4289896337
51.280941 -27.739069 -2.3518658 4287861653
82.303696 30.216644 -5.3778057 4287863145
67.242706 -4.7374496 -3.863193 4290423191
51.213131 -27.460241 -2.3949199 4287729813
67.012253 -4.4392014 -3.8606105 4290291607
51.241707 -27.222759 -2.4319284 4287531922
29.594849 11.112184 -1.9113382 4286153303
67.317024 -4.211638 -3.8772535 4290225559
51.534492 -27.13658 -2.4716372 4289043867
66.50116 25.540722 -4.2696996 4287139673
67.603226 -3.7322655 -3.9276264 4290949535
49.519814 -25.591927 -2.4337437 4290753194
49.967815 -25.591835 -2.4805868 4290818729
82.535408 32.411762 -5.2214608 4287138652
49.743958 -25.269308 -2.4945717 4290687400
82.31189 32.672703 -5.1683321 4286745688
82.377716 33.048843 -5.1644926 4286021707
82.401108 33.40937 -5.1424589 4286414929
71.908775 -2.6493425 -4.1994519 4291081121
72.242363 -2.3712814 -4.2310023 4291212194
49.182644 -24.051767 -2.59146 4290753193
49.30135 -23.907558 -2.6222773 4290818987
49.671001 -23.862347 -2.666189 4290884779
49.373154 -23.486351 -2.6740363 4290884779
49.317589 -23.238644 -2.6950107 4290753193
49.414722 -23.063465 -2.7243044 4290753194
49.786831 -23.015291 -2.7881372 4290753193
49.593014 -22.705454 -2.7916927 4290753193
49.544888 -22.432865 -2.8217397 4290687400
50.002644 -22.022526 -2.9112432 4290358435
50.355465 -21.947453 -2.9557011 4290555814
50.63126 -21.847181 -2.9961269 4290884522
50.815628 -21.706158 -3.0216548 4290950315
50.791233 -21.475954 -3.0637727 4290884779
51.881142 -20.583109 -3.2573719 4291016365
51.60965 -20.235992 -3.2449079 4290818987
51.492889 -19.993456 -3.2720773 4291017136
50.808243 -19.290094 -3.2668777 4290820014
51.063892 -19.173313 -3.3074384 4291082159
51.05265 -18.955889 -3.3308082 4291213744
50.96468 -18.700871 -3.33938 4291016365
51.003628 -18.50334 -3.3564775 4290687400
51.125805 -18.335896 -3.3886213 4290884779
51.162849 -18.107666 -3.4145484 4291016365
51.944107 -17.5417 -3.535836 4291214514
52.035275 -17.360281 -3.5569148 4291477170
52.479485 -17.28483 -3.6020844 4291214515
52.076321 -16.940722 -3.5893233 4290821810
52.706268 -16.93228 -3.6575522 4290491302
51.132927 7.0588984 -2.9129989 4292000165
51.730141 -15.136753 -3.6839333 4290949025
51.279198 7.2707195 -2.9318991 4292000165
51.835503 -14.961551 -3.7253497 4290883232
52.000343 -14.802876 -3.7332718 4291146661
50.313007 7.7079592 -2.8546641 4292131236
52.033985 -13.971669 -3.7863541 4291278247
49.595673 8.16605 -2.7749646 4291934112
50.141891 8.4448633 -2.7983379 4291868319
52.142086 -13.591715 -3.8246744 4291015587
49.831589 8.5805416 -2.7562017 4292131236
52.667328 -13.512874 -3.8593667 4291212709
48.874935 8.6003799 -2.7137015 4291868064
52.249695 -13.201799 -3.8630071 4291016358
52.522633 -13.056422 -3.8794515 4290818979
51.721741 -12.656229 -3.8261845 4290423453
51.75193 -12.462758 -3.8436911 4290422681
51.341938 -12.155644 -3.828259 4290422681
51.36121 -11.961578 -3.8356543 4290554524
49.516998 9.8585272 -2.6813543 4291868577
51.372791 -11.360856 -3.8544981 4291015330
51.294205 -11.137064 -3.845365 4290883232
50.158924 10.936414 -2.6365709 4291605925
50.44519 -10.566117 -3.8029411 4291146916
50.188091 11.135622 -2.6132441 4291737509
49.70388 -10.211782 -3.744072 4290883489
49.865303 11.255922 -2.5806775 4291934118
50.678829 -10.218645 -3.8237383 4290686363
50.771503 -10.034613 -3.827795 4290817696
49.738934 11.227398 -2.4670825 4291935403
50.359734 -10.172598 -3.7007675 4290949537
49.931732 11.078742 -2.4567201 4291738792
50.202503 -10.33249 -3.6560049 4289830801
50.178429 10.931493 -2.4757586 4291738022
50.353443 -10.56525 -3.6608994 4290028180
51.09684 -10.898258 -3.6717331 4290291607
51.234261 -11.142777 -3.6664 4290752158
51.712799 -11.454982 -3.6944754 4290883489
48.831078 9.8815546 -2.4279311 4292065958
51.447884 -11.594281 -3.6600628 4290817698
49.571499 9.8423977 -2.4806192 4291868579
51.282681 -11.764143 -3.6330426 4290488733
51.032173 -11.903729 -3.5907953 4290686112
51.644684 -12.246362 -3.6184134 4291080870
51.330276 -12.579431 -3.5750985 4291016358
51.300762 -12.771697 -3.5392041 4290817696
48.851486 8.5786743 -2.4605069 4291802786
51.382221 -12.982618 -3.5386379 4291146661
49.026382 8.4154634 -2.4763732 4292131751
52.833652 -13.575206 -3.623194 4291212454
50.298401 8.4441414 -2.5301204 4292065958
49.825932 8.1771688 -2.5136642 4291934372
51.952614 -13.765281 -3.5132322 4291212967
39.441322 6.3245368 -1.9955781 4292131238
51.917446 -13.959808 -3.4954445 4291080868
50.264923 7.862289 -2.550566 4292065698
51.891174 -14.156888 -3.4782913 4291146663
50.896301 7.2073684 -2.6040184 4292065958
51.039055 7.0187087 -2.6008451 4291868579
83.108566 -24.66522 -5.4085937 4289041549
83.259163 -25.074013 -5.3944311 4291082159
52.123497 -16.976191 -3.2568092 4291213745
51.854656 -17.079035 -3.2244086 4291476917
52.085552 -17.387159 -3.2142293 4291147952
51.585793 -17.420696 -3.1680512 4291147952
51.615669 -17.66193 -3.1551077 4290818986
51.011574 -17.873995 -3.0787816 4290555814
51.009441 -18.093454 -3.0638697 4290621607
51.179729 -18.365316 -3.0400391 4290884780
50.578587 -18.359129 -2.9800477 4290950573
50.594845 -18.565166 -2.9659359 4291016365
50.685162 -18.829506 -2.9472415 4291147951
50.408382 -18.917149 -2.9159296 4291082158
50.996231 -19.371651 -2.9257627 4291016882
51.122837 -19.644695 -2.91816 4290950575
51.656952 -20.067533 -2.9237287 4291016365
51.786293 -20.315683 -2.9153743 4290884779
52.063099 -20.665813 -2.9061952 4290753193
22.92845 0.67249006 -1.2061604 4291278500
50.712658 -21.453165 -2.7026982 4290687400
50.230858 -21.466736 -2.6525261 4290358435
50.334507 -21.708712 -2.6426067 4290621350
50.22839 -21.881634 -2.6124759 4290687400
49.848461 -22.832932 -2.4801781 4290950573
49.371181 -22.833607 -2.4320397 4291279280
49.337082 -23.016743 -2.4055445 4291082158
49.637642 -23.378868 -2.3955767 4290161827
49.710648 -23.636257 -2.3743894 4290884780
72.581474 -1.8879364 -3.7924135 4291540384
49.620979 -23.838314 -2.3457811 4290884779
72.370178 -2.1226127 -3.7817204 4291409827
49.138485 -23.817987 -2.2982445 4290950572
72.262108 -2.3845549 -3.7765043 4291278239
49.22245 -24.081879 -2.2775424 4290753193
82.563805 33.441784 -4.6372728 4287600478
50.174145 -24.77582 -2.2964141 4291016365
50.16441 -25.021986 -2.2809467 4290950572
50.145058 -25.220337 -2.244607 4290950573
82.434135 32.322182 -4.7179003 4286942556
66.822975 -3.2097375 -3.4709575 4290883744
82.501625 32.000271 -4.7924643 4287139424
67.000259 -3.464433 -3.4808021 4291146916
66.628563 25.562965 -3.8899238 4285758033
67.271889 -3.7257502 -3.4838092 4290554779
30.122854 11.424555 -1.7673447 4286020943
67.131958 -3.9648576 -3.500829 4290422681
50.336151 -26.259197 -2.1611857 4287729814
67.536674 -4.2490473 -3.4872324 4290487703
50.22789 -26.459759 -2.101546 4287927193
50.091648 -26.600569 -2.0896125 4287861400
67.498116 -4.7436056 -3.4987845 4290094228
82.160454 29.806562 -4.9476328 4286546266
67.963928 -5.0267382 -3.5119352 4290291095
82.548737 29.572983 -5.0252409 4287730532
68.003868 -5.2923126 -3.515023 4289830801
51.188549 -27.943684 -2.0467386 4288058778
29.278032 10.379398 -1.7911047 4286679384
68.153839 -5.5553665 -3.5118377 4289830543
51.149067 -28.142693 -2.0182755 4287861399
29.169889 10.203721 -1.7926817 4286613329
67.465096 -5.7482162 -3.5011082 4289501836
82.618324 28.593012 -5.1022058 4287008089
67.687904 -6.017169 -3.5018997 4289699215
82.361099 28.166391 -5.1256437 4286482003
66.86937 -6.2032838 -3.449007 4290093973
30.088091 10.166701 -1.8812892 4289177206
29.553391 9.8597574 -1.8563895 4287465818
67.091019 -6.7202272 -3.4510875 4290291095
82.613289 27.225792 -5.2135024 4287862880
51.681282 16.822187 -3.2956355 4289175666
51.851444 16.448246 -3.3366396 4291407774
51.781681 16.21747 -3.3473158 4291540384
51.923504 16.043222 -3.3715193 4290421903
33.536942 10.227675 -2.1874731 4290551176
51.098328 -6.6546526 -2.5923555 4291081121
53.405479 15.870131 -3.5247285 4291274387
51.416763 -6.8787289 -2.600636 4291212707
53.313663 15.630419 -3.5343359 4291538071
51.227497 -7.0446229 -2.6013994 4290949535
53.474865 15.465063 -3.5607505 4291800984
53.445591 15.214293 -3.5934815 4291998876
50.140381 -7.2878799 -2.5223653 4291212197
53.163521 14.92357 -3.5901701 4291867290
50.087761 -7.4767289 -2.5122836 4290949282
53.225929 14.750852 -3.6104233 4291998363
50.881741 -7.7678242 -2.562391 4290817439
53.400673 14.578722 -3.6475611 4292064669
51.1642 -8.0029507 -2.5690148 4291015075
50.996899 -8.1683788 -2.5530641 4291015075
50.866158 -8.3478861 -2.5571237 4290949537
50.733101 -8.5171194 -2.5249858 4291146661
53.813206 13.836907 -3.7489817 4292262048
50.140438 -8.6066933 -2.4970422 4291147174
53.697865 13.597622 -3.7568736 4292327841
50.18615 -8.8130512 -2.4920709 4291147174
52.204926 13.006473 -3.6583343 4292393634
52.254597 12.81562 -3.6962364 4292130208
52.365829 12.629935 -3.7100928 4291934110
52.37764 12.015325 -3.7671604 4292130979
53.987984 12.196424 -3.8897586 4292197284
49.174965 -9.9511442 -2.4186978 4291212456
53.547581 11.871213 -3.883425 4292196001
49.023487 -10.116588 -2.4218969 4290884772
53.288795 11.618835 -3.8999612 4292131489
49.069992 -10.313838 -2.4085021 4291146916
52.869129 11.112365 -3.9009466 4291999650
52.350063 10.803067 -3.8972137 4291999905
49.624565 -11.010589 -2.441607 4291081897
49.778622 -11.218097 -2.433151 4291147176
50.633667 -11.615261 -2.622525 4291146663
51.044308 -11.512693 -2.6782157 4290949284
52.194828 10.771032 -4.0727272 4291802271
49.547821 -10.984488 -2.6508555 4291147174
49.91906 -10.501399 -2.7359068 4291016104
54.122154 12.008503 -4.2365508 4292197029
49.392643 -10.183781 -2.7224483 4291147174
54.318066 12.270993 -4.2653193 4292197029
50.105118 -9.9483471 -2.8023355 4290949282
49.86179 -9.3223734 -2.8360116 4291015330
67.383545 16.526047 -5.2654581 4291999392
50.008808 -9.1783342 -2.8693323 4290817438
50.077576 -8.9923334 -2.8801847 4290488473
50.20488 -8.4464607 -2.9354775 4289896594
51.156494 -8.4047031 -3.0164449 4289962387
50.686054 -8.1185904 -3.004739 4290225559
82.465233 22.513533 -6.3674994 4292261535
82.543694 22.875877 -6.3502288 4292261535
49.985565 -7.6488667 -2.9776876 4289765008
82.574493 23.210644 -6.3591003 4292064156
51.237309 -7.6391835 -3.0777042 4289567629
82.572517 23.536983 -6.3354144 4292064156
82.467171 23.849709 -6.3343105 4291998363
82.410027 24.160845 -6.306541 4291932572
82.480217 24.525734 -6.3039732 4291866524
82.301147 24.801168 -6.2670279 4291800984
33.615402 10.26443 -2.5502427 4291933083
54.135941 -6.6470575 -3.3455169 4288188304
54.28933 -6.4543915 -3.3630178 4288123283
82.492302 26.199797 -6.2041912 4290618250
82.459618 26.538403 -6.1789584 4290224521
82.594055 26.884253 -6.1956782 4290224524
66.268066 -7.128809 -4.1582532 4287859592
30.194698 9.9625616 -2.2456858 4289237629
66.486618 -6.9059091 -4.1820621 4288648071
30.136082 10.060003 -2.2439244 4291277210
30.019423 10.143497 -2.2268753 4290027656
66.923286 -6.4439793 -4.2181492 4290226072
82.439247 28.225264 -6.0932274 4289043569
66.829964 -6.1878638 -4.2460909 4290686623
82.478912 28.560884 -6.0728745 4285886796
67.176003 -5.9716635 -4.2548399 4290686110
67.726456 -5.7704844 -4.3359809 4290883232
30.245981 10.734434 -2.2048566 4287926119
68.151718 -5.5432196 -4.3498297 4290817439
67.686745 -5.2557478 -4.3545861 4290949025
67.866302 -5.0195174 -4.3410735 4291014818
51.169849 -27.690521 -2.7132516 4287860113
68.061981 -4.7712951 -4.3882575 4290883232
51.54261 -27.648489 -2.7583184 4289043607
66.997887 -4.4499946 -4.330337 4290949025
51.488277 -27.353754 -2.7903075 4290818987
66.788185 -4.2136598 -4.3158565 4290817439
66.763321 25.681532 -4.7511754 4287138646
67.241936 -3.7123194 -4.3549628 4290949022
50.277077 -25.994402 -2.8275886 4290818986
67.229416 -3.4645174 -4.3650985 4290883744
49.930664 -25.60582 -2.8327706 4290753193
49.769108 -25.293015 -2.8476329 4290555815
67.745972 -3.00524 -4.3971286 4291081121
49.360649 -24.85821 -2.8480437 4290161059
49.333019 -24.61804 -2.889468 4290753193
49.555676 -24.470421 -2.9158258 4290753193
49.24358 -24.092216 -2.9402227 4290621608
49.58234 -24.054508 -2.9846096 4290687401
49.695087 -23.863243 -3.0145564 4290884779
49.65081 -23.639687 -3.0359788 4290818986
49.383041 -23.28002 -3.0427914 4290753193
49.597752 -23.159437 -3.0795214 4290490021
49.535847 -22.909761 -3.0991111 4290555557
49.640694 -22.737764 -3.1291177 4290358178
49.984081 -22.642237 -3.173584 4290621607
50.230412 -22.353516 -3.2375114 4290818729
51.761147 -22.120724 -3.4428325 4290884779
52.028652 -22.009874 -3.4849272 4290884779
52.101883 -21.805376 -3.5138853 4290555814
51.502983 -20.225288 -3.6169462 4290621607
51.67794 -20.065308 -3.6237953 4290951342
51.372101 -19.730188 -3.6261919 4291016365
51.223087 -19.457825 -3.639431 4290621607
51.026665 -19.1695 -3.6395705 4290621607
51.909111 -18.402374 -3.7932341 4291080872
51.864799 -18.172958 -3.8332925 4290817957
51.552399 -17.841543 -3.8051114 4290884779
51.794891 -17.069372 -3.9091229 4290687400
52.221611 -16.998064 -3.9462342 4290950572
83.02256 -26.00178 -6.3430161 4290818727
83.023315 -25.65238 -6.3812437 4288975242
82.936035 -25.292791 -6.4282293 4290883491
82.925758 -24.957821 -6.4506955 4290883491
83.100067 -24.662697 -6.487268 4290949282
50.816307 7.4042397 -3.2398489 4292131751
50.548332 7.7530403 -3.2084608 4292065958
50.179977 7.8848953 -3.1779926 4291802784
39.765301 6.3978462 -2.5128229 4292000163
50.223877 8.2784891 -3.1667812 4291868577
52.71381 -13.524799 -4.2257023 4290620572
52.694649 -13.314225 -4.2297692 4290620572
52.678764 -13.104998 -4.2436752 4290686110
51.274715 -12.546843 -4.1451955 4290883489
48.997372 9.1961651 -3.0316675 4291868577
51.333485 -12.361989 -4.1648016 4290883744
49.328148 9.4455423 -3.0190639 4291868066
49.349907 9.8342152 -3.0071995 4291999905
49.490128 10.050892 -3.0091236 4292197284
49.198044 10.188425 -2.9761209 4292065443
51.302902 -11.3454 -4.1997747 4291146916
49.360878 10.392971 -2.9615357 4291934372
49.054527 10.516379 -2.936662 4291736480
49.890106 10.886924 -2.9622247 4291868066
50.582836 11.232471 -2.9694862 4291737509
50.719994 11.467458 -2.9709954 4291671970
50.41 -10.164439 -4.1284871 4291146916
50.874237 11.69849 -2.9459605 4291934118
50.204185 -9.9224863 -4.1084809 4291080868
50.157738 -9.7224245 -4.0927615 4291014818
50.238125 -9.7380066 -4.0723562 4290949025
50.304089 -9.9604778 -4.0448861 4291081123
50.621788 11.435967 -2.8379202 4291737509
50.527878 -10.206563 -4.0207405 4291015330
50.385071 11.188556 -2.8313665 4291869095
51.136013 -10.524621 -4.0538406 4291015330
49.957485 10.901628 -2.8050742 4291999911
50.013138 10.712758 -2.8148229 4291475620
48.996326 10.307285 -2.7642155 4291343266
51.45295 -11.190339 -4.0331516 4291212709
48.887096 10.097339 -2.7559466 4291737509
51.36853 -11.378723 -3.9929848 4291080868
49.378338 10.010242 -2.7903731 4291868579
49.494274 9.8360434 -2.8036044 4292000418
48.794983 9.511301 -2.7619996 4291999905
51.436497 -11.998041 -3.952812 4290291354
49.142872 9.3922834 -2.7884834 4291934112
51.252823 -12.15344 -3.9236038 4290356888
48.906605 9.1614571 -2.7818646 4291868319
51.522182 -12.42646 -3.9292457 4290422938
49.088253 9.0005245 -2.7989483 4291868064
48.985741 8.611064 -2.7894289 4291670685
52.715961 -13.544967 -3.9301147 4291081123
39.73608 6.3860302 -2.2712376 4291868064
50.187664 7.6887569 -2.8831117 4291934370
50.686668 7.5570865 -2.9189851 4292000165
51.987221 -14.81876 -3.780103 4290949282
52.165562 -15.056817 -3.7585919 4290883232
52.07777 -15.238473 -3.7372341 4290883232
51.646538 -15.34744 -3.6919732 4291080868
51.519527 -15.515426 -3.6680648 4291015079
83.215874 -25.743702 -5.8772645 4291213744
67.381355 -21.387569 -4.6955056 4290423969
51.98975 -16.932631 -3.5837641 4290821810
51.962936 -17.114697 -3.5666294 4291214515
52.175922 -17.427446 -3.5669444 4291477170
51.952744 -17.564823 -3.5272298 4291148205
51.978878 -17.786213 -3.5141504 4291147951
51.916073 -17.987701 -3.4952912 4290818729
51.578392 -18.08271 -3.4482622 4290885549
51.108433 -18.128567 -3.4022584 4291147694
50.829311 -18.24959 -3.350467 4291016365
50.909138 -18.489172 -3.3317053 4290753193
50.968601 -18.7225 -3.3210404 4291082158
25.170805 1.6762556 -1.4810609 4291343780
50.823097 -18.860563 -3.2966235 4291147951
50.978851 -19.161692 -3.283283 4291147952
37.309856 2.2100792 -2.2008612 4291672227
50.761585 -19.272381 -3.2638774 4290820014
51.975407 -19.972307 -3.3275459 4290885807
51.756798 -20.116718 -3.2698426 4291017136
51.333092 -20.14823 -3.2279615 4290818987
51.638279 -20.957632 -3.1840446 4291082158
51.752014 -21.225048 -3.1664507 4290950572
51.836815 -21.482113 -3.1469619 4290818987
50.451817 -22.241386 -2.9378469 4290555814
49.824028 -22.580214 -2.8285134 4290687400
49.615719 -22.715849 -2.7929707 4290753193
49.596458 -22.927286 -2.7774763 4290753193
49.311226 -23.036127 -2.728565 4290753194
49.312218 -23.236111 -2.7137926 4290555814
49.369038 -23.505529 -2.6838241 4290753193
49.49572 -23.799406 -2.6668341 4290753193
49.139828 -23.85042 -2.6236839 4290753194
49.088608 -24.027018 -2.5965071 4290753193
82.352707 33.373013 -5.2013187 4286875734
67.333717 -2.7279437 -3.9564312 4290818460
82.485237 32.708187 -5.2717433 4287732325
67.616257 -2.999486 -3.9855337 4291213737
82.514572 32.370338 -5.2970495 4287138395
67.649689 -3.2494476 -3.9881794 4291212709
49.648483 -25.22081 -2.5384791 4290884779
82.458839 31.983675 -5.3320251 4286809681
67.567528 -3.4937654 -3.9840646 4290949533
49.868778 -25.585077 -2.5059614 4290753193
67.77359 -3.7654014 -3.9851496 4290883744
49.598476 -25.65452 -2.467344 4290884780
29.746973 11.299814 -1.9406736 4286743894
67.495262 -3.9981356 -3.9696181 4290752158
29.469376 11.059202 -1.9251658 4285429067
67.198257 -4.2277565 -3.9176607 4290685853
51.426876 -27.079912 -2.5071261 4289570464
29.393379 10.90211 -1.9394215 4286875734
67.02655 -4.4636488 -3.9321063 4290291095
51.226658 -27.2377 -2.4620976 4287400591
29.563366 10.842065 -1.9645536 4286941780
67.376396 -4.7705045 -3.9419382 4290554777
51.130875 -27.439119 -2.4523938 4287729556
29.875265 10.844191 -1.9940171 4286480722
67.68943 -5.0183144 -3.9493179 4290356888
51.612324 -27.918322 -2.4388742 4287861653
68.352364 -5.3194337 -3.9891071 4289962387
51.211571 -27.967854 -2.3946183 4287927446
67.605774 -5.5225706 -3.9348655 4289567629
29.540134 10.350596 -2.0022039 4287204188
67.48629 -5.7618866 -3.917253 4289238666
29.507605 10.212157 -2.0192158 4287531613
67.403687 -6.0037613 -3.9374101 4289173132
82.483849 28.20837 -5.6984029 4289045363
67.390762 -6.263515 -3.9261785 4289502351
30.093679 10.156887 -2.0873251 4289305462
66.965584 -6.4716454 -3.8909819 4289370511
30.066732 10.031021 -2.0941267 4289634174
67.150696 -6.7380428 -3.8913281 4289173132
67.239746 -6.9959984 -3.897948 4289173132
66.059181 -7.106338 -3.8192897 4289107080
54.042175 -6.0140514 -3.1162443 4289238668
54.133286 -6.2251396 -3.1323342 4289238925
66.3554 20.781803 -4.7403259 4290946964
33.551357 10.232072 -2.4159064 4291735704
82.514748 24.83412 -5.9349809 4291669398
53.6087 15.910157 -3.8906796 4291735450
53.679707 15.717386 -3.9112453 4291933083
53.749382 15.544454 -3.9321721 4291867290
51.271843 -7.2514205 -2.9313338 4290028435
53.695698 15.305755 -3.9630904 4291998876
51.165092 -7.4368215 -2.9177885 4290357145
53.65934 15.062752 -3.9754653 4292130462
50.119572 -7.6783252 -2.8614442 4289830544
50.104187 -7.8461065 -2.8531563 4289830544
38.7127 10.416499 -2.9088256 4292196255
50.971272 -8.1825247 -2.895261 4289502091
38.841713 10.298693 -2.9227142 4292262048
50.506718 -8.4881783 -2.863364 4291278247
90.380356 22.517599 -6.9217329 4292065185
49.855453 -8.9524469 -2.7964633 4291343782
67.200005 16.481033 -5.178247 4292065185
49.954407 -9.159337 -2.8127692 4291344295
67.561531 16.294935 -5.2256422 4291934112
49.938984 -9.3548479 -2.8050075 4291146661
49.727825 -9.5040817 -2.795085 4291081123
50.017918 -9.9491835 -2.8065805 4290883489
54.209625 12.246496 -4.2763186 4292328615
49.614628 -10.058144 -2.7771387 4290488733
54.254059 12.037769 -4.3054171 4292064932
49.401417 -10.203568 -2.7672789 4290818209
49.813633 -10.47922 -2.7835915 4291212969
52.40995 11.015852 -4.2054753 4291934112
52.368988 10.806973 -4.2365446 4291934118
50.921707 -11.513063 -2.8548467 4291212197
50.752663 -11.670534 -2.8477485 4291343783
50.721283 -11.84988 -2.9394808 4291146916
50.722424 -11.65426 -2.991729 4290094486
50.923939 -11.504226 -3.0285347 4290752416
52.310627 10.785412 -4.4381056 4291934372
49.796162 -11.048662 -2.9946499 4291016358
52.419235 11.017803 -4.46029 4292065958
50.219524 -10.949626 -3.0536849 4291081381
49.984451 -10.706614 -3.0638452 4291080868
49.720726 -10.4778 -3.0633345 4290949537
50.203564 -10.360111 -3.0993614 4291146916
49.749931 -10.076534 -3.1046236 4291015075
49.704269 -9.7065535 -3.1329591 4289765008
50.146923 -9.5932522 -3.1764057 4289699217
67.348228 16.268368 -5.7084575 4292064415
67.211685 16.496336 -5.6898093 4292065185
90.319534 22.535934 -7.6205635 4291868319
51.04866 -9.1667089 -3.2994328 4287200112
50.285202 -8.8394918 -3.2569194 4287463543
50.270367 -8.6560955 -3.2718604 4287069813
50.408978 -8.299963 -3.3126481 4289370765
38.644497 10.398148 -3.240941 4292064416
82.433456 22.504858 -6.9201961 4292130209
82.227531 22.788258 -6.8952141 4292261794
82.831879 23.282991 -6.922771 4292196001
53.364685 -7.9754057 -3.5649266 4290751903
82.703522 23.589933 -6.9195628 4292261535
53.343689 -7.7629867 -3.5898557 4290555807
82.652336 23.903259 -6.8923368 4292196255
53.321774 -7.5603294 -3.595933 4289372568
53.803158 -7.4275241 -3.6360586 4288648587
53.964153 -7.2387037 -3.6545792 4288451208
53.899384 -7.0290065 -3.6770129 4288910990
54.127048 -6.8570328 -3.7003713 4288845450
54.116261 -6.4433942 -3.7153354 4290225561
65.739906 -7.3390594 -4.5559349 4290291352
65.980049 -7.1094751 -4.5822902 4290291607
66.639923 -6.9335899 -4.6380711 4290751903
66.471321 -6.6698732 -4.6246047 4290620572
67.412521 -6.5029626 -4.7239466 4290817949
68.062843 -6.0624733 -4.7902451 4290949025
68.219795 -5.8125191 -4.799686 4290949025
67.653206 -5.5145588 -4.7702732 4290949022
67.15995 -5.2266359 -4.7459264 4290949276
67.486252 -4.9914083 -4.7913346 4291015069
50.754768 -27.477356 -3.0348299 4290555555
50.972515 -27.354136 -3.0722084 4290687400
51.825089 -27.544289 -3.1579955 4290687143
51.070171 -26.926249 -3.1570668 4290621607
51.335201 -26.803177 -3.2073255 4290621607
50.832718 -26.32667 -3.200526 4290621607
68.041481 -3.2563641 -4.8948069 4290686365
49.517952 -24.926598 -3.1965303 4290621607
68.10376 -2.7710469 -4.885778 4291278241
49.348743 -24.636646 -3.2092929 4290621607
49.683617 -23.665945 -3.3659112 4290292643
49.795502 -23.495708 -3.3965726 4290621350
49.697823 -23.216728 -3.4222462 4290687141
49.540916 -22.922604 -3.4343276 4290489764
49.768124 -22.806643 -3.4730387 4290555557
49.549271 -22.486975 -3.4901338 4290621350
49.980747 -22.472725 -3.5437915 4290687143
50.629017 -22.298397 -3.6162939 4290687400
51.581589 -21.831364 -3.7988269 4290752936
51.567181 -21.592173 -3.8112369 4290884522
51.708637 -21.428993 -3.8453057 4290687400
51.620232 -20.95031 -3.8858271 4290621608
53.084656 -21.082033 -4.0341325 4290490021
51.967659 -20.188236 -4.0060802 4290753193
51.988132 -19.977198 -4.0313001 4290687143
51.454334 -19.555946 -3.9939814 4290424228
51.135609 -19.210428 -3.9826553 4290753193
51.258488 -19.042496 -4.0347381 4290752936
51.223644 -18.816187 -4.045692 4290621607
51.735435 -18.779045 -4.0900474 4290818729
51.871613 -18.613592 -4.1340809 4290818729
51.458141 -18.252611 -4.1245193 4290687143
51.568832 -18.069254 -4.1469831 4290687143
52.085606 -18.036259 -4.202548 4290752936
52.16814 -17.850975 -4.2329388 4290752936
52.253788 -17.656443 -4.2537231 4290818729
52.108677 -17.394878 -4.2559829 4290752936
67.026161 -21.274826 -5.5467782 4290687143
83.294937 -25.402243 -6.9605827 4290883489
83.031975 -24.989788 -6.9613705 4291080357
51.768398 -15.157757 -4.3874407 4291278502
52.228367 -14.867787 -4.4454646 4290817951
39.722233 6.3980293 -2.7781684 4291868830
82.938438 -22.285357 -7.1210079 4290818211
83.010147 -21.963228 -7.165143 4291147174
83.010521 -21.638094 -7.1884351 4291344040
52.774113 -13.334304 -4.5804024 4291212454
52.903271 -13.160848 -4.6065598 4291080610
49.411869 9.2828884 -3.3834171 4291868577
49.066154 9.3953753 -3.3532121 4291868577
49.308842 9.6472015 -3.3459914 4291934112
82.88475 -19.303135 -7.2958865 4291146404
83.022919 -19.014788 -7.3018656 4290752158
82.967712 -18.667152 -7.305604 4291212709
52.249935 10.829951 -3.497432 4292066211
51.418724 -11.371014 -4.5239024 4291080868
52.342297 11.049335 -3.4969251 4292132004
52.312374 -11.35813 -4.6174808 4291344040
52.411324 -11.17862 -4.6319904 4291278502
51.350056 -10.755649 -4.5346832 4291081123
51.325989 -10.545048 -4.5473766 4290883744
51.296707 -10.34323 -4.5321913 4291080868
50.534824 11.629728 -3.2897472 4291999905
50.385609 11.790009 -3.1921563 4291999393
50.428482 11.605256 -3.1921563 4291933857
51.557518 -10.611374 -4.4386563 4291081123
52.298809 -11.17371 -4.4625702 4291541674
51.32695 -11.369513 -4.3406072 4291015330
52.453213 10.643128 -3.320436 4292066211
51.408676 -11.585445 -4.3233013 4291015330
52.275948 10.407817 -3.3161166 4292066211
83.049042 -19.051281 -6.96031 4290949282
49.268433 9.6125135 -3.1317661 4291999650
82.961601 -19.351564 -6.928946 4291146661
49.474342 9.4645853 -3.1514547 4292065698
49.105434 9.2075748 -3.1432934 4291934625
52.842045 -13.351467 -4.3373156 4290817696
52.829563 -13.574155 -4.3024096 4290949282
52.768856 -13.774766 -4.2825861 4290291865
39.759983 6.3827534 -2.5546825 4292000418
52.57299 -14.757802 -4.182457 4291212709
52.404449 -14.93769 -4.1546535 4291015075
83.074936 -24.686796 -6.5164008 4290949282
83.257805 -25.057755 -6.5070453 4290751905
83.078728 -25.368008 -6.4552197 4290620832
83.099052 -25.70756 -6.4030175 4289304718
83.030403 -26.036066 -6.3748455 4290818727
66.994827 -21.548386 -5.1062751 4291016108
52.247639 -17.674686 -3.9149456 4291016365
52.327282 -17.915632 -3.8773012 4290687400
51.910629 -17.965523 -3.8315527 4290884779
51.765575 -18.158482 -3.8071852 4291015079
51.808666 -18.387127 -3.7863631 4290883493
52.070808 -18.695332 -3.7911003 4290621350
51.850464 -18.841288 -3.7512767 4291017135
51.43111 -18.902584 -3.7067096 4290621607
51.330559 -19.079466 -3.6756749 4290884779
51.54332 -19.600061 -3.6530025 4290621607
51.672565 -19.866287 -3.6478899 4290884779
51.512817 -20.021891 -3.6127064 4290885549
51.431015 -20.197027 -3.573154 4290753193
52.817341 -21.189613 -3.6302936 4291082159
52.921131 -21.467529 -3.6330585 4290687400
52.165001 -21.853191 -3.4889293 4290555557
51.896477 -21.953959 -3.4563301 4291016365
51.883003 -22.194223 -3.4316814 4290687401
51.534744 -22.247702 -3.4036746 4290818986
51.415703 -22.441599 -3.3526008 4290621607
50.575356 -22.285305 -3.2834971 4290818729
50.268719 -22.391588 -3.2308462 4290818729
49.873745 -22.435078 -3.1819921 4290687143
50.135292 -22.731827 -3.1836882 4290621607
49.519314 -22.703083 -3.1219656 4290358178
49.351173 -22.845266 -3.0880558 4290621350
49.452038 -23.091394 -3.0895855 4290556068
99.147156 -1.8171699 -6.5516858 4291539614
49.472385 -23.322138 -3.0674479 4290621607
99.205811 -2.1820014 -6.5386519 4291473821
99.201691 -2.5630362 -6.5389805 4291473821
49.348759 -23.941187 -2.9705493 4290687401
67.795601 -2.2490115 -4.4697828 4291343264
49.226196 -24.105013 -2.9396873 4290621608
68.056473 -2.5193062 -4.4756503 4291278502
49.348812 -24.389704 -2.9330583 4290621607
67.757645 -2.7569642 -4.4566326 4290949282
49.202911 -24.574572 -2.9016011 4290753193
82.666031 32.796577 -5.8290534 4286678095
67.99366 -3.0162275 -4.4370632 4291146916
49.257442 -24.827795 -2.8618948 4290490022
82.533997 32.37796 -5.8420153 4286809681
49.291618 -25.072002 -2.8498449 4290490022
82.699127 31.74522 -5.9147186 4287204439
66.695496 -3.9507611 -4.3674059 4291145634
50.557083 -26.419369 -2.8497922 4290818987
66.670639 -4.2062435 -4.355094 4290817185
50.461452 -26.594051 -2.8196771 4290818986
66.82251 -4.4617753 -4.3895307 4290949025
51.652164 -27.487074 -2.8514075 4290818987
82.409645 30.255541 -6.0309715 4286414680
51.592846 -27.675436 -2.8224561 4291214261
67.629562 -5.0257444 -4.4211245 4290949025
51.180069 -27.696051 -2.7850492 4288056971
82.33876 29.513973 -6.0857158 4287007840
67.441559 -5.2603936 -4.4100652 4290883231
51.206463 -27.976667 -2.7415392 4287466642
82.296227 29.174955 -6.1362634 4286677592
67.999443 -5.5547285 -4.4358888 4290883232
82.170937 28.791956 -6.1342835 4286412882
67.819305 -5.8022418 -4.4136286 4291014818
82.283318 28.493155 -6.1653829 4287727972
66.992485 -5.9789205 -4.3612165 4290686110
82.408951 28.182756 -6.1971974 4289306743
66.846672 -6.2129455 -4.3414111 4290489244
66.68898 -6.4566622 -4.3210053 4290555037
66.645752 -6.6991243 -4.3080273 4290555037
82.354042 27.140354 -6.3067942 4292330411
65.577087 -6.8345757 -4.2636495 4290554524
82.507774 26.856169 -6.3414359 4290816661
66.617661 -7.2017031 -4.3213267 4289304718
82.745956 26.598686 -6.3827085 4290157699
65.703941 -7.3466549 -4.2521877 4287727234
54.22715 -6.2647042 -3.5013354 4287596161
66.430351 20.805277 -5.1852927 4291275149
54.252853 -6.4788647 -3.4949999 4288254097
54.153843 -6.6684451 -3.4997354 4287925902
82.408401 24.802113 -6.50108 4292064156
82.67598 24.552538 -6.5756035 4291998363
53.687103 -7.2206187 -3.4460886 4287136388
82.561348 24.20521 -6.5446224 4291998365
53.52129 -7.3790927 -3.4085944 4287463292
82.721733 23.923328 -6.6108093 4291998876
82.47995 23.510595 -6.6143398 4292129179
82.527512 23.197437 -6.6714983 4291998874
53.469486 -7.9815278 -3.4202337 4290751645
53.356606 -8.1647081 -3.4054461 4289699215
82.539124 22.502748 -6.7180352 4292261535
38.685188 10.409098 -3.1528788 4292196255
50.190655 -8.2550182 -3.1912415 4287398267
50.186298 -8.6416197 -3.1949983 4287332728
51.128513 -8.9969358 -3.238867 4289041800
90.275787 22.491547 -7.5344815 4291867806
67.191277 16.478891 -5.6149073 4292196001
50.996853 -9.3688745 -3.2167206 4289239177
67.261833 16.222652 -5.6398683 4292130208
49.982273 -9.3719873 -3.1370504 4289568142
50.152908 -9.5943975 -3.1588922 4289567631
49.832157 -9.7315283 -3.1321247 4289765008
49.711113 -10.086737 -3.120193 4291015075
50.170494 -10.380678 -3.1515052 4291081123
49.824993 -10.499773 -3.1232784 4291081123
50.230217 -10.777596 -3.1511347 4291015330
52.420509 11.018071 -4.5639672 4292197033
49.993443 -10.927757 -3.1388903 4291212709
52.303947 10.784035 -4.5783467 4291868319
49.95739 -11.111883 -3.1481285 4291015330
51.045845 -11.531766 -3.2007751 4291015075
50.645851 -11.664587 -3.1969392 4291080868
91.285103 17.760561 -8.2833853 4292261537
91.120277 18.075357 -8.2907267 4291998876
52.31155 10.785602 -4.776279 4292065698
51.315777 -11.404627 -3.4362621 4290949543
52.231861 10.968901 -4.7820311 4291999652
50.249004 -10.97443 -3.389158 4291015079
50.356407 -10.217671 -3.4758842 4289172873
49.911671 -9.9371042 -3.4783423 4288713351
49.708958 -9.6984625 -3.4704754 4287989628
50.870564 -9.5569296 -3.5922132 4289043080
50.896851 -9.350503 -3.6186168 4290423704
50.207832 -8.8529959 -3.6097455 4290620572
50.204918 -8.6628714 -3.6161652 4290554779
50.866055 -8.5759573 -3.6794844 4291015330
53.059124 -8.3373022 -3.8782606 4291081121
53.308178 -7.5489116 -3.953764 4291081123
53.697815 -7.2220597 -4.0168576 4291146403
53.071812 -6.9305043 -3.9774024 4290949024
65.585289 -7.0785184 -4.9947577 4290883744
66.689407 -6.7035127 -5.1102619 4290751903
68.010742 -6.5726504 -5.1975465 4290817951
67.833092 -6.3046269 -5.2180471 4290883483
67.01329 -5.7215023 -5.1633434 4290949022
67.117378 -5.4826746 -5.1816034 4290883229
66.053535 -5.1405301 -5.1095428 4290949276
66.264038 -4.9126396 -5.1477308 4290883742
50.794277 -27.521675 -3.3816464 4290292642
66.409996 -4.6787825 -5.1693926 4290883231
51.160946 -27.478262 -3.4400127 4290621607
69.043777 -4.5979862 -5.3729939 4290554779
50.982162 -27.141947 -3.451628 4290687143
51.118629 -26.9632 -3.5044501 4290555815
51.170704 -26.751398 -3.5417359 4290621095
51.17371 -26.514601 -3.5654852 4290555302
51.184528 -26.282692 -3.589747 4290423971
50.235596 -25.298838 -3.5781422 4290490021
50.371098 -25.158026 -3.6114323 4290621350
50.665829 -25.073631 -3.675488 4290424228
76.301346 -2.5178447 -6.0217223 4291079579
99.312057 -2.2016799 -7.8353944 4291212448
49.873787 -23.320145 -3.7630329 4290752164
50.036919 -23.162706 -3.8169477 4290423971
50.723915 -23.255354 -3.8726115 4290358435
50.884167 -23.103502 -3.9077575 4290621607
50.761799 -22.845213 -3.9413393 4290358178
50.84914 -22.405945 -3.992821 4290489764
50.865005 -22.190666 -4.0168614 4290226592
51.716133 -22.122841 -4.1208172 4290292385
54.035816 -22.40447 -4.3778334 4290490021
54.152344 -22.220537 -4.4114676 4290687400
54.041164 -21.94384 -4.4367819 4290752681
51.525002 -19.593096 -4.3383956 4290621350
51.727642 -19.443142 -4.3879604 4290685860
51.684273 -19.210941 -4.4073334 4290751653
51.785633 -19.032883 -4.4293809 4290751905
51.748413 -18.79398 -4.4490061 4290686371
51.496529 -18.489143 -4.4407196 4290488992
52.360138 -18.582846 -4.5385714 4290423971
52.312042 -18.33992 -4.5477448 4290226592
52.461407 -18.176645 -4.5841751 4290818729
52.526154 -17.983723 -4.6035552 4290818729
52.428085 -17.725533 -4.6084132 4290687143
52.083981 -17.396738 -4.6014838 4290883752
66.795937 -21.201752 -5.9833369 4290488733
67.013809 -21.000856 -6.0206118 4291212454
82.968994 -25.651461 -7.4756808 4291212709
83.065971 -25.348267 -7.4912672 4291015330
82.976807 -24.988981 -7.5358691 4290949282
83.143776 -24.69146 -7.5423665 4291278249
83.333801 -24.415882 -7.6125221 4291146663
82.976913 -22.637661 -7.6610112 4291212454
39.603611 6.3860145 -3.0373988 4291933857
83.070259 -22.320778 -7.6919246 4291080868
83.071877 -21.995075 -7.7147961 4291212196
83.018181 -21.640089 -7.7322254 4291146404
66.367104 11.46359 -5.0640631 4291999905
52.651112 -13.313003 -4.9137592 4291081121
52.758163 -13.12475 -4.9381442 4291015330
82.822372 -19.624174 -7.7760777 4291146916
83.061523 -19.344303 -7.8515406 4291212709
83.005684 -19.010839 -7.839623 4290949537
82.984436 -18.670916 -7.8457599 4290949537
52.261925 10.841951 -3.8727653 4291934112
82.976715 -18.349918 -7.868536 4291081123
52.276829 11.045047 -3.8580952 4292065443
82.801956 -17.978067 -7.8602748 4291080611
83.032845 -17.709772 -7.875978 4291081123
82.967789 -16.39797 -7.8902402 4291014818
82.633537 -16.361881 -7.7107172 4290883232
82.793694 -16.724213 -7.6870017 4290883491
82.832008 -17.048172 -7.6665459 4291080868
52.264877 11.023464 -3.6601841 4291999905
52.335503 10.828636 -3.6715629 4292261794
83.017693 -18.708845 -7.5051279 4291343783
83.038765 -19.048923 -7.4986043 4291081123
82.947754 -19.653883 -7.4579172 4291081123
83.059555 -20.032852 -7.4450884 4291015075
83.048668 -20.352606 -7.3906035 4291015075
52.732063 -13.137806 -4.6780357 4291081123
52.622356 -13.315503 -4.6535139 4291080868
66.664658 11.503004 -4.7305346 4292065698
82.985306 -21.307007 -7.3300476 4291080868
82.85128 -21.596582 -7.2950468 4291409833
82.942207 -21.976233 -7.2504268 4291212454
39.822746 6.4142194 -2.8276429 4291868830
83.109825 -22.362518 -7.2422762 4290818211
83.174232 -24.7321 -7.0578451 4291212454
67.091263 -20.486252 -5.6317558 4290883744
67.075874 -20.763453 -5.6124477 4290949025
66.97522 -20.975924 -5.5851612 4290686114
66.956055 -21.278303 -5.5539289 4290687143
52.220757 -17.240036 -4.2894125 4290687143
51.956039 -17.364082 -4.2440104 4290818729
51.88068 -17.530369 -4.2233505 4290818729
51.828529 -17.734766 -4.2053828 4290752936
52.122063 -18.48811 -4.15832 4290687143
52.438953 -18.837839 -4.1602621 4290818729
51.789795 -18.819242 -4.0948644 4290818729
51.402718 -19.116499 -4.0273681 4290818729
33.136829 2.0905991 -2.4091258 4291605923
51.152241 -19.237051 -3.984473 4290687400
51.261719 -19.50322 -3.9699354 4290687400
51.645355 -21.402769 -3.8209941 4290753193
51.6408 -21.622999 -3.816678 4290884522
51.61132 -21.865194 -3.7917509 4290752936
51.150188 -22.092279 -3.7007344 4290621350
50.906231 -22.229805 -3.6797729 4290621607
50.668213 -22.357908 -3.6202078 4290621608
49.783382 -22.834665 -3.4650624 4290489764
49.574211 -22.959019 -3.427618 4290621350
49.58176 -23.183598 -3.4052212 4290621348
49.875664 -23.533531 -3.4213645 4290687143
76.256256 -2.249912 -5.5354166 4291408798
76.356712 -2.5463543 -5.5433769 4291342751
68.324562 -2.780031 -4.949605 4291080862
68.588264 -3.0545993 -4.9574757 4291212707
68.297653 -3.2925196 -4.9373102 4290620572
51.254986 -26.081924 -3.3159757 4290753194
51.012966 -26.420023 -3.2420497 4290621607
50.712765 -26.500725 -3.2191041 4290621607
69.207115 -4.6331296 -4.9719324 4290883232
51.169487 -27.218756 -3.1693521 4290753193
50.885326 -27.330229 -3.1281888 4290555815
67.03186 -4.9813275 -4.8299446 4290949276
50.834599 -27.555 -3.0910666 4290490021
66.863075 -5.2270136 -4.8191934 4290751643
67.659485 -5.5388455 -4.866116 4290883229
67.366272 -5.7634826 -4.8346534 4290883231
67.853592 -6.067709 -4.8951654 4290949025
67.757256 -6.3095069 -4.8779135 4290883232
67.023537 -6.5008612 -4.8150401 4290883744
66.632881 -6.7095785 -4.7769618 4290686110
65.455925 -7.0876718 -4.6847162 4290686365
53.343277 -6.3608007 -3.7942405 4290225302
53.49715 -6.5781026 -3.8163292 4290488474
53.310059 -6.7535329 -3.7952971 4290356888
53.415482 -6.9943476 -3.7954056 4290817696
53.654652 -7.2067208 -3.8045814 4290884002
53.528397 -7.3895931 -3.8070018 4290884001
53.223751 -7.5559072 -3.7779417 4290817438
53.472744 -7.7912984 -3.7881396 4290686110
53.372635 -7.9956412 -3.7738249 4290686110
51.662582 -7.9239426 -3.6640129 4291081123
51.021103 -8.6020975 -3.5817981 4290093716
50.050358 -8.6272068 -3.515846 4289896849
50.410446 -8.8887224 -3.5345356 4289436043
50.936562 -9.1741114 -3.582834 4289567884
50.770065 -9.5380497 -3.5488803 4288187516
49.700676 -9.7148561 -3.4701335 4287923835
49.81525 -9.9359875 -3.4718642 4288713351
50.420658 -10.441616 -3.5102692 4289699730
50.072636 -10.762069 -3.491565 4290620317
51.193275 -11.199384 -3.5633566 4290883489
51.208328 -11.408887 -3.5674272 4290686112
51.291245 -11.606024 -3.5850861 4290751905
51.394924 -11.846559 -3.5956283 4290752418
51.270363 -11.808424 -3.7344029 4290554524
51.273167 -11.413939 -3.792917 4290883744
49.997437 -10.545225 -3.7523589 4291080868
50.492798 -10.456555 -3.8137805 4291212454
50.617908 -10.279931 -3.8564792 4291015330
50.509258 -10.083578 -3.8546724 4290817696
50.316696 -9.835268 -3.8729277 4290751903
49.775505 -9.5582247 -3.8377075 4290948771
50.062359 -9.3960495 -3.8925216 4291146404
50.139919 -9.2204905 -3.9048483 4290949025
50.747101 -9.1582785 -3.9769082 4291146403
50.785431 -8.9639816 -3.9952943 4291015328
51.126728 -8.8311195 -4.0286808 4291015326
52.347557 -8.8445282 -4.1316195 4291081119
52.533756 -8.6498127 -4.1808157 4290949535
52.453167 -8.457983 -4.1814775 4291081121
51.49081 -7.7137294 -4.1433558 4291014818
66.983841 -7.5016036 -5.541501 4290554779
67.248016 -7.2698483 -5.5847774 4290686365
67.163399 -6.5025945 -5.6069436 4290686110
66.810921 -5.7159696 -5.618979 4290817438
67.585136 -5.2715921 -5.7044353 4290817949
50.70034 -27.493675 -3.7195785 4290226849
50.741699 -27.2645 -3.7552884 4290424228
68.95752 -4.6285095 -5.8521461 4290817438
50.371609 -26.828184 -3.7706146 4290490022
68.929764 -4.3487716 -5.8604035 4290751645
50.432552 -26.623825 -3.797838 4290621607
69.531792 -4.1187711 -5.9224439 4290817438
50.584896 -26.46763 -3.8420148 4290555302
69.163383 -3.8426161 -5.8898258 4290817438
50.777531 -26.30933 -3.878674 4290358435
50.694195 -26.042093 -3.8953207 4290226592
50.936775 -25.93119 -3.9667699 4290160544
69.19783 -3.0938478 -5.9260945 4290817438
50.953911 -25.705194 -3.9907677 4290161057
68.946411 -2.8173866 -5.8914623 4291146655
50.724693 -25.356756 -3.9953489 4290226849
50.515968 -25.021421 -4.0013227 4290358178
50.685268 -24.863371 -4.0467553 4290357408
50.805183 -24.669672 -4.0781155 4290620067
49.883743 -23.537344 -4.0989404 4290358178
50.465439 -23.158173 -4.2139554 4290358178
50.820107 -23.063719 -4.2452631 4290555555
54.165203 -21.281658 -4.8766289 4290949284
51.894646 -19.083229 -4.7985439 4290488733
52.071636 -18.490688 -4.8538175 4290752936
52.511944 -18.420294 -4.9078069 4290687143
83.194862 -26.422932 -7.9901047 4291146661
82.987839 -26.022718 -8.0069304 4291015588
82.90374 -25.647139 -8.019805 4291212709
82.81356 -25.287039 -8.032546 4291212456
82.769096 -24.926428 -8.0493259 4291212454
82.79995 -24.60508 -8.0739155 4291015077
82.929329 -24.297375 -8.1078033 4291212456
83.051987 -24.003132 -8.1568069 4291080868
30.950211 -8.57162 -3.0527501 4291015077
39.797623 6.4244251 -3.3284848 4291736480
31.254047 -8.2751846 -3.1074271 4291081123
66.586838 11.513513 -5.5200491 4292196255
83.165947 -21.353388 -8.3130932 4290883232
52.368362 -13.241508 -5.2392607 4290883489
52.677822 -13.104763 -5.2842751 4290817439
82.75901 -20.266312 -8.3243303 4290949025
82.852089 -19.967512 -8.3262749 4290883231
82.799416 -19.618734 -8.343338 4291014817
82.83886 -19.307692 -8.3701029 4290817439
82.891548 -18.984699 -8.3829851 4291146404
83.038246 -18.698248 -8.3908339 4290751903
52.218719 10.823482 -4.2157845 4291868325
82.761612 -18.302349 -8.3855944 4290817439
52.206753 11.030241 -4.2088361 4291868319
82.836441 -18.000694 -8.4013748 4290883489
82.977936 -17.698061 -8.4087715 4290883232
54.385918 12.126797 -4.3364544 4292065447
82.953018 -17.042898 -8.4378262 4290883489
54.173885 12.288119 -4.2840962 4292131491
82.961273 -16.727928 -8.432373 4290883489
54.28611 12.522957 -4.2672286 4292130976
82.792976 -16.078329 -8.3290329 4290751903
54.194691 12.501868 -4.1819382 4291868319
82.709297 -16.346882 -8.2814503 4290751903
82.718918 -16.70911 -8.2298689 4290949025
82.756012 -17.03253 -8.2248287 4290883232
82.640488 -17.656248 -8.122076 4291015330
52.29591 11.039544 -4.0281882 4291802526
82.69957 -17.986067 -8.1044931 4291146404
52.35067 10.850831 -4.0293155 4291999905
82.804123 -18.34207 -8.0767689 4290883232
82.714806 -18.640585 -8.0448027 4290949025
82.790901 -18.992065 -8.0293217 4290949025
82.867531 -19.329622 -8.0285864 4291146916
31.645449 -7.4981647 -3.0570202 4290949024
31.084803 -7.4972372 -2.9832242 4291014818
52.716995 -13.134051 -5.0207748 4291015075
52.769066 -13.342828 -5.0109782 4291015326
66.452499 11.454453 -5.1649694 4291934112
83.207832 -21.395102 -7.8793073 4291081123
82.871338 -21.63271 -7.8247519 4290883744
83.112778 -22.036953 -7.8252168 4291212197
39.640984 6.3778448 -3.096483 4291868577
83.205872 -22.388361 -7.8264923 4291278249
83.071701 -22.694679 -7.7613983 4291212454
82.861099 -23.30681 -7.697268 4291146661
82.991165 -23.96986 -7.633533 4291146661
83.06208 -24.367756 -7.6493773 4291212456
82.923843 -24.626146 -7.5832667 4291278249
83.012444 -24.999714 -7.5695972 4290883489
82.996185 -25.358643 -7.5315523 4291081123
82.971809 -25.684067 -7.5072865 4291475369
83.14946 -27.113195 -7.3901978 4290621346
52.433453 -17.962208 -4.5957046 4290818729
52.196873 -18.105402 -4.5519037 4290818729
52.355862 -18.355282 -4.5320582 4290226592
51.654308 -18.780214 -4.4221683 4290686625
51.791763 -19.035135 -4.4105206 4290751905
51.655643 -19.220825 -4.3861027 4290751396
53.885769 -20.738779 -4.5137272 4290751653
53.995461 -20.986839 -4.4982038 4290751907
53.999447 -21.227413 -4.4849176 4290488994
53.891029 -21.413168 -4.4518576 4290686373
50.707218 -22.820648 -3.9371014 4290358178
50.429855 -22.918461 -3.8929133 4290424228
50.545853 -23.173719 -3.878521 4290490021
49.851326 -23.076794 -3.8027904 4290423971
49.786739 -23.279442 -3.7757401 4290488992
49.631863 -23.429089 -3.7223632 4290423971
51.399338 -24.725784 -3.8184125 4290423971
50.735901 -24.646973 -3.7464633 4290424228
76.350143 -2.5728164 -6.079381 4290816407
51.166817 -25.110674 -3.7557223 4290358435
68.975502 -2.5533266 -5.4806962 4291014301
50.41449 -24.971157 -3.677609 4290292642
50.481121 -25.234997 -3.6496248 4290555557
50.461246 -25.44561 -3.6248744 4290490021
50.20031 -25.567301 -3.5838556 4290555814
69.522705 -3.6191962 -5.5156431 4290751643
49.948231 -25.647867 -3.5423944 4290489764
69.4104 -3.8684916 -5.4956117 4290817436
50.968224 -26.408133 -3.5813408 4290555302
69.37513 -4.1337934 -5.4940352 4290488473
51.057148 -26.703381 -3.5846722 4290555302
69.450012 -4.3937635 -5.4889832 4290817951
51.080814 -26.977449 -3.5331843 4290490021
51.080803 -27.194464 -3.5089896 4290621350
50.898857 -27.337496 -3.4729886 4290555814
50.36055 -27.286671 -3.4229934 4290555814
67.207542 -5.5136571 -5.2834349 4290883229
66.959335 -5.7404399 -5.2537398 4290883229
67.923897 -6.0859456 -5.3431902 4290817436
67.821724 -6.3274493 -5.3369408 4290752158
67.794037 -6.5755949 -5.3246627 4290883232
67.020294 -6.7604046 -5.2540631 4290686110
66.933357 -7.7562919 -5.2438588 4290752158
51.393589 -7.6991644 -3.9895258 4290949282
51.619179 -7.9449515 -4.0003119 4291081123
52.617615 -8.2773371 -4.0704417 4290949282
52.615673 -8.4841871 -4.063426 4290883744
52.447193 -8.6543646 -4.0435052 4290949025
52.538017 -8.8672781 -4.0529861 4291015328
50.294994 -8.8774166 -3.8849809 4291146403
50.817902 -9.1618977 -3.909811 4290883489
49.998497 -9.2125273 -3.8405373 4290949282
50.053257 -9.4124298 -3.8384278 4291080611
49.597313 -9.5150328 -3.8061121 4290948771
50.346584 -10.051103 -3.8602796 4290817696
50.66185 -10.30727 -3.8782487 4291081123
50.587727 -10.494632 -3.8756306 4291146661
50.344692 -10.636825 -3.8509409 4290949282
50.634933 -10.901417 -3.8763154 4291146661
51.172382 -11.410254 -3.9145553 4290751903
51.386581 -11.448601 -4.1526136 4291015330
50.58955 -10.900884 -4.127399 4291015075
50.543003 -10.678724 -4.1472926 4291080868
50.722309 -10.513317 -4.1950612 4291015075
50.002827 -10.17319 -4.1414089 4291015330
49.969913 -9.9940443 -4.1717281 4290883231
49.963192 -9.793334 -4.1769428 4291015075
50.000664 -9.4206114 -4.2188926 4290949282
50.010513 -9.2237673 -4.2345786 4291014047
50.093983 -9.0313835 -4.2653804 4290817436
50.371342 -8.890892 -4.2951837 4291211680
52.423161 -8.462532 -4.5337591 4291146912
39.152458 -6.0261397 -3.4100046 4291146403
38.485023 -5.7722273 -3.3567612 4290949025
38.697567 -5.6591611 -3.3803453 4291081123
67.117973 -6.0019274 -6.0851574 4291080868
67.134201 -5.4958444 -6.1064224 4290685852
50.711147 -27.488085 -4.0638704 4290226592
50.566708 -27.193224 -4.085331 4290160799
50.557854 -26.92738 -4.1260934 4290095006
50.561172 -26.714298 -4.1492105 4290029213
50.95657 -26.684763 -4.213974 4290160799
50.760124 -26.334032 -4.2194395 4290095263
50.902454 -26.171541 -4.2634463 4290226592
50.703163 -25.125164 -4.3640647 4290291613
76.082527 -2.5239174 -7.0484452 4291080860
51.200058 -25.138077 -4.4289169 4290555557
51.146313 -24.879456 -4.446312 4290686373
51.45837 -24.76524 -4.5044966 4290555553
51.064583 -23.670898 -4.5779519 4290685601
51.108059 -23.463865 -4.6037502 4290685601
51.245945 -23.300137 -4.6381221 4290620067
51.288395 -23.103739 -4.6642914 4290817957
51.460003 -22.954529 -4.7217293 4290949545
51.386871 -22.675024 -4.7165012 4290687400
83.120811 -35.608456 -7.7682219 4290883239
82.982574 -35.172745 -7.7901654 4290949286
83.010696 -34.826309 -7.8282595 4290949284
