# .PCD v0.7 - Point Cloud Data file format
VERSION 0.7
FIELDS x y z rgb
SIZE 4 4 4 4
TYPE F F F U
COUNT 1 1 1 1
WIDTH 1091
HEIGHT 1
VIEWPOINT 0 0 0 1 0 0 0
POINTS 1091
DATA ascii
2.719907 0.37741828 -0.27795684 4280364850
4.6980405 -1.3907311 -0.54697645 4284576102
2.7064984 0.36497098 -0.27692288 4280167471
4.7031059 -1.4092102 -0.54637223 4284510309
2.6683128 0.3498688 -0.27335727 4288061599
4.6978421 -1.4273137 -0.54465836 4284444774
2.6843331 0.34196639 -0.27534541 4287011219
4.7116694 -1.4503988 -0.54600304 4284510310
2.6856742 0.33166268 -0.27487311 4287011732
4.7059145 -1.4702355 -0.54256123 4284445029
2.6867113 0.32274911 -0.27534541 4287733917
4.7011938 -1.4858898 -0.54084021 4284444516
2.6879444 0.31148118 -0.27629 4280298540
4.6998405 -1.5071442 -0.5396626 4284312930
2.6939626 0.3021763 -0.277271 4280364078
4.7086468 -1.5290236 -0.53956497 4284313443
2.6951511 0.29183525 -0.27679786 4278783506
4.6941032 -1.5424348 -0.53589439 4284444516
2.7060487 0.2829847 -0.27828851 4287010190
4.7027464 -1.5643955 -0.5357818 4284443746
2.7070673 0.27258733 -0.27876338 4286748047
4.6869087 -1.5809624 -0.53298044 4284312928
2.7030489 0.26217872 -0.27872774 4286879117
4.6908436 -1.6014626 -0.53059143 4284312931
2.7090366 0.25226352 -0.27876338 4280757295
4.6149068 -1.593546 -0.52090448 4284247650
2.7148972 0.24277572 -0.279273 4280561197
4.5664067 -1.5973436 -0.51444173 4284247650
2.7207162 0.23276933 -0.28025922 4278191884
4.5044432 -1.5942223 -0.50642926 4284181602
2.7215025 0.22279185 -0.28073579 4289707438
4.4522014 -1.5932422 -0.49950886 4284247138
2.7222519 0.21281172 -0.28121236 4288522391
4.4044151 -1.5943758 -0.49314657 4284247138
2.7329199 0.20309103 -0.28271511 4288325013
4.3658967 -1.5994196 -0.48623604 4284181344
2.7485297 0.19412422 -0.28425443 4288192657
4.3223772 -1.6031853 -0.47966194 4284181344
2.7740176 0.18522263 -0.28730512 4287930255
4.2935495 -1.6095643 -0.47627455 4284377954
2.809474 0.1772494 -0.29041156 4287929485
4.2920904 -1.628698 -0.47278509 4284312160
2.8299425 0.16763389 -0.29295871 4287667083
4.2910228 -1.6454509 -0.47329733 4284181344
2.8504009 0.15836409 -0.29501456 4287601292
4.2899084 -1.6630845 -0.47059759 4284181345
4.2933517 -1.682546 -0.46839589 4284312160
4.9576778 0.23986889 -0.51380104 4287995278
4.2915602 -1.7008818 -0.46809551 4284311648
4.9686661 0.21954325 -0.51396263 4287863692
4.2896175 -1.7200682 -0.46537355 4284115809
4.9544587 0.20245615 -0.51242071 4287667083
4.2837372 -1.7350923 -0.46376026 4284115809
4.9699039 0.1822381 -0.51656675 4287470217
4.2906237 -1.7579635 -0.46444857 4284115809
4.9755993 0.16418827 -0.51621443 4287338631
4.2982411 -1.7795107 -0.46269596 4284181345
4.9661999 0.14652584 -0.51518303 4287140998
4.2783804 -1.7888079 -0.45959267 4284115552
4.9568043 0.12633567 -0.51415157 4286549376
4.2851357 -1.8118751 -0.45863611 4284181345
4.9671073 0.10751533 -0.51605016 4286022521
4.2923412 -1.8334955 -0.45847842 4284181344
4.9724092 0.091134354 -0.51656675 4285824881
4.2769961 -1.8446208 -0.45506209 4284115552
4.9677496 0.07196901 -0.51605016 4285431661
4.2887464 -1.868361 -0.45374101 4284181602
4.96807 0.053761791 -0.51518303 4285760111
4.2817574 -1.8849103 -0.45129153 4284115552
4.490643 0.032134913 -0.46724352 4286943872
4.2704158 -1.8986331 -0.4491801 4284181345
4.3809042 1.9706948 -0.4523958 4284442460
4.2818666 0.012704592 -0.44551125 4287931027
4.2720537 -1.9199371 -0.44768453 4284181345
4.3829932 1.9532677 -0.45443955 4284441693
4.2768345 0 -0.44574028 4287864210
4.2797441 -1.9395769 -0.44747165 4284181345
4.3716893 1.9290562 -0.45505589 4284574046
4.276803 -0.016421825 -0.44574028 4288259479
4.2818718 -1.9594899 -0.44595417 4283127886
4.3745441 1.909373 -0.45791429 4282008635
4.2816758 -0.033628896 -0.4462586 4286485129
4.2696643 -1.9746706 -0.44301972 4284048731
4.3901715 1.8979776 -0.4605388 4278390278
4.2767148 -0.048519868 -0.44424736 4286551171
4.2583742 -1.9875225 -0.44091055 4286418819
4.3741474 1.8720516 -0.45897308 4284179286
4.2864537 -0.06434378 -0.44528052 4286879620
4.2739258 -2.0138907 -0.43912303 4286352262
4.3763504 1.8531449 -0.46264055 4284178773
4.2760749 -0.080611654 -0.44574028 4281878338
4.279717 -2.0367374 -0.43968397 4286351492
4.3828893 1.8369985 -0.46512893 4280429087
4.2908225 -0.0966231 -0.44579712 4282602059
4.2724986 -2.0525422 -0.43637496 4286154113
4.3663859 1.8112954 -0.46516886 4280891443
4.2804766 -0.11283582 -0.44476396 4282535750
4.265152 -2.0682874 -0.43389305 4286022781
4.3730826 1.7944237 -0.46764398 4283850069
4.275063 -0.12837452 -0.44424736 4282930508
4.2666912 -2.0883839 -0.43231741 4285825402
4.3748684 1.7764499 -0.46879992 4283257422
4.2795091 -0.14495695 -0.44476396 4282864717
4.2499151 -2.1004388 -0.42892891 4285825148
4.3758912 1.7599841 -0.47077557 4283519822
4.2739792 -0.16045457 -0.44424736 4282996817
4.2290192 -2.1094329 -0.42510283 4285562746
4.3645015 1.7341994 -0.4712483 4283779135
4.2733316 -0.17686425 -0.44424736 4283852379
4.2429533 -2.137696 -0.42485502 4285562746
4.379858 1.7217407 -0.47471091 4282990138
4.2825913 -0.19297336 -0.44528052 4283655001
4.2623024 -2.1661322 -0.42502367 4285431160
4.3717785 1.7009701 -0.47484294 4284507740
4.2818189 -0.20941587 -0.44528052 4282799438
4.2545319 -2.1818411 -0.42252022 4285365367
4.2760558 -0.22484694 -0.44476396 4282931024
4.2459354 -2.1990037 -0.42001665 4285299574
3.3144765 1.2617 -0.36274168 4283455311
4.2850924 -0.24182458 -0.44579712 4283326036
4.2605028 -2.2254438 -0.41968751 4285300087
3.3097489 1.2453715 -0.36419305 4284573533
4.2592001 -0.25602722 -0.4447037 4284247138
4.2436986 -2.2365017 -0.41630611 4285167218
3.3328772 1.2401481 -0.36686262 4283521354
4.2782702 -0.27366418 -0.44453228 4285101677
3.3793819 1.2427008 -0.37399432 4283521356
4.2870073 -0.29000381 -0.44706357 4285035884
3.3651571 1.2234869 -0.37255296 4283652429
4.2760963 -0.30576423 -0.44453228 4284838505
3.360225 1.2071061 -0.37401086 4283783247
4.2700648 -0.32106778 -0.44326922 4284180575
3.3175831 1.1780769 -0.3706452 4283652429
4.24891 -0.33663505 -0.44120991 4283326295
3.4437413 1.2086807 -0.38553047 4283652431
4.2673807 -0.35309213 -0.44476396 4283062864
3.4387705 1.1921254 -0.38638568 4283586638
4.2811537 -0.37003529 -0.44406369 4282864717
3.4053607 1.1665795 -0.38341942 4280955955
4.2845001 -0.38690436 -0.44607937 4283522647
3.3998668 1.1514529 -0.38361329 4281087282
4.2731504 -0.40167433 -0.445048 4285035883
3.4273176 1.1467644 -0.38942391 4283521874
4.2766037 -0.41857108 -0.44481373 4285234032
3.3749239 1.1148425 -0.38423669 4283718222
4.2750411 -0.43424278 -0.44481373 4285101677
3.3886325 1.1043037 -0.38717768 4283652940
4.2734184 -0.45066264 -0.44406369 4285166957
3.3592188 1.0817617 -0.38462961 4283522126
4.2718153 -0.46633092 -0.44331372 4284246116
3.3440864 1.0633768 -0.38368762 4283718224
4.2699933 -0.48273003 -0.44331372 4284378474
3.333662 1.0459844 -0.38449651 4283652944
4.2038994 -0.49086952 -0.43738222 4286944648
3.3325977 1.0322487 -0.38516742 4283718224
4.2712646 -0.51536709 -0.44307595 4286220928
3.3410959 1.0208379 -0.38754535 4283718735
4.2792959 -0.53225601 -0.44334781 4286286721
3.3256545 1.0028077 -0.38655281 4283718735
4.2722101 -0.54804063 -0.4435882 4286154364
3.3291781 0.99057335 -0.38776526 4283718735
4.2753339 -0.56437671 -0.44184253 4286614656
3.3471308 0.98194104 -0.39064714 4283784526
4.2877679 -0.58277738 -0.44488189 4287207306
3.3262448 0.96384579 -0.39028254 4283850323
4.2758274 -0.59712368 -0.44310564 4284837992
3.3348997 0.95122987 -0.39205304 4283587919
4.2786102 -0.6135084 -0.44286174 4286351743
3.338068 0.93954593 -0.39326355 4283719251
4.2859883 -0.63137102 -0.44463712 4286746244
3.3268631 0.92324609 -0.39398372 4283785298
4.2689672 -0.64485848 -0.44235212 4286812294
3.3302507 0.91042876 -0.3951889 4283916884
4.2812057 -0.66353077 -0.44388101 4286813064
3.3286357 0.89688843 -0.39582369 4280298279
4.2790585 -0.67773628 -0.44312486 4287075720
3.317518 0.88024372 -0.39531073 4285035381
4.2713485 -0.69486803 -0.44186082 4287009673
3.3205881 0.86804348 -0.39650881 4284114781
4.2740035 -0.70985603 -0.44161251 4286944650
3.3188851 0.85399741 -0.3977294 4284048470
4.2807236 -0.72941077 -0.44338447 4286747272
3.317044 0.84057325 -0.3983475 4284048470
4.2780972 -0.74510878 -0.44262654 4287404685
3.3152931 0.82659537 -0.39896202 4284048470
4.275281 -0.76154351 -0.44186863 4284443238
3.3132067 0.81318843 -0.40076396 4284246360
4.2777023 -0.77661902 -0.441616 4282009146
3.311341 0.7992627 -0.40136969 4286942340
4.2695212 -0.79362148 -0.4411107 4281877560
3.3092124 0.78592467 -0.40256557 4289179805
4.2715464 -0.81020606 -0.4408572 4281022253
3.2972946 0.77094525 -0.40198454 4288718743
4.2783852 -0.82698518 -0.44262657 4281745972
3.3289237 0.76548332 -0.40730962 4290234298
4.2802811 -0.84363747 -0.44237041 4281614386
3.3123291 0.74828821 -0.40612695 4286550919
4.277236 -0.85933506 -0.44160897 4281482549
3.3149107 0.73611212 -0.40731227 4286944134
4.6833467 -0.9596495 -0.4830724 4281285682
3.2981036 0.71910286 -0.40669784 4287405453
4.6846681 -0.97782487 -0.48357508 4284838754
3.3054156 0.70741296 -0.4096559 4286747269
4.6955585 -0.99892837 -0.48424524 4285167469
3.3176312 0.69732046 -0.41145071 4289179554
4.6966453 -1.0171669 -0.48558581 4285036654
3.3102803 0.68251401 -0.41260558 4290626485
4.6927052 -1.0351931 -0.48558581 4284839275
3.341733 0.67623973 -0.41802612 4290626998
4.6887965 -1.0523672 -0.48642451 4284905067
3.3537526 0.6652776 -0.42163017 4290627253
4.6944199 -1.072579 -0.48743156 4284839532
3.3900468 0.65957242 -0.42772216 4291153082
4.69522 -1.0908843 -0.48877645 4284970091
3.2605932 0.62140161 -0.41402626 4291350715
4.6908302 -1.1088653 -0.49045902 4284839274
3.2548616 0.62030929 -0.42034796 4291351744
4.6899905 -1.1086668 -0.49887094 4285035624
3.3302112 0.64793068 -0.43160042 4290824630
4.6935115 -1.0913507 -0.50391734 4285036135
3.3472748 0.66399258 -0.43412441 4290365109
4.6922016 -1.0729339 -0.50759792 4284905067
3.3444772 0.67679507 -0.43591112 4290298288
4.6910887 -1.0537417 -0.51043028 4284905068
3.3080001 0.68264574 -0.43029699 4289969838
4.6946578 -1.0364832 -0.51294768 4285101930
3.2957683 0.69272518 -0.42903328 4289048995
4.6985154 -1.0184304 -0.51378679 4284970860
3.3077068 0.70850712 -0.43033844 4286681478
4.6970024 -1.0000924 -0.51660824 4285232492
3.2904034 0.71742392 -0.42962107 4286878087
4.6906395 -0.98077995 -0.51804781 4284970083
3.3071387 0.73438627 -0.43096945 4287667342
4.6308017 -0.94972485 -0.51353693 4281022510
3.3042946 0.74707931 -0.43096945 4287536785
4.2833128 -0.86211145 -0.47541973 4281285425
3.3062944 0.76027977 -0.43219256 4285036653
4.2813883 -0.84463197 -0.47792554 4281286450
3.2648604 0.76396275 -0.42596728 4288981913
4.2793288 -0.82794237 -0.47966349 4281417009
3.3393943 0.79432422 -0.4348512 4289113499
4.2726283 -0.80963874 -0.4793286 4281811514
3.3025708 0.79897594 -0.43045241 4291086268
4.2753201 -0.79392743 -0.48160553 4282733131
3.3046515 0.81170022 -0.43048689 4284048981
4.2733645 -0.77660191 -0.48181313 4283194449
3.296627 0.82377505 -0.42926633 4284048727
4.2759333 -0.76088977 -0.48408726 4278521344
3.2649531 0.82797939 -0.42491844 4283982677
4.2884011 -0.74690336 -0.48595479 4287668631
3.3386064 0.86093611 -0.43372774 4283851609
4.2664938 -0.72621995 -0.48544717 4286943621
3.3547783 0.87760681 -0.43622401 4289246903
4.2739449 -0.71137947 -0.48676077 4286943108
3.3035834 0.87778085 -0.42879018 4281941821
4.2763925 -0.69492245 -0.48902932 4287074694
3.3196492 0.89508855 -0.4300794 4283719764
4.2739196 -0.67845172 -0.48922378 4287009673
3.3018322 0.90389854 -0.42821756 4283785298
4.2713299 -0.66123676 -0.49092525 4286813577
3.3368862 0.92665493 -0.43197361 4283522383
4.2785525 -0.6463064 -0.49224478 4286681479
3.3237524 0.93676883 -0.43073586 4283587665
4.2807469 -0.62983555 -0.49451038 4286484099
3.2775044 0.93671471 -0.42397612 4283587665
4.2731061 -0.61271918 -0.49412826 4286615685
3.3312857 0.96593672 -0.42956579 4283522126
4.275342 -0.59629524 -0.49488169 4286418819
3.3227918 0.97732067 -0.42895123 4283652942
4.2871718 -0.58193433 -0.49753094 4286286720
3.2907979 0.98102951 -0.42406535 4283652942
4.2646656 -0.56221116 -0.49542561 4286022779
3.2918983 0.99513662 -0.42347774 4283522124
4.2813916 -0.54845893 -0.49789524 4286681479
3.2790892 1.003144 -0.42225558 4283390286
4.2780924 -0.53286457 -0.49957964 4286681478
3.3129861 1.0287095 -0.42532787 4283587151
4.2752657 -0.51509285 -0.49900413 4286418304
3.3330066 1.0483353 -0.42715067 4283520845
4.2818851 -0.49921805 -0.5018369 4284247138
3.2962229 1.0494238 -0.42290342 4283324493
4.2835989 -0.48351097 -0.50258929 4283983712
3.3303561 1.0737503 -0.42592531 4283324493
4.2706122 -0.46544531 -0.50085223 4283852128
3.3401237 1.0923659 -0.42651111 4283390286
4.276967 -0.45028207 -0.50368309 4284115300
3.3552809 1.1103027 -0.42768714 4283586638
4.2638426 -0.4323535 -0.50193828 4285035884
3.3843501 1.1337014 -0.43002316 4281813056
4.2603688 -0.41623139 -0.50210375 4285364849
3.3611681 1.1403086 -0.42763081 4282337608
4.2863402 -0.40366894 -0.50651908 4285168240
3.3712637 1.1575295 -0.42755878 4280956458
4.2730012 -0.3851141 -0.50551516 4284904298
3.4044495 1.1835563 -0.43106458 4283389772
4.2743196 -0.37019619 -0.50551516 4284444263
3.4190357 1.2026912 -0.43154189 4283127114
4.2803936 -0.35416889 -0.50834918 4283457883
3.31672 1.1797265 -0.41789886 4283323977
4.2717633 -0.33769545 -0.50717384 4283259989
3.3495359 1.2065674 -0.4207502 4283389772
4.2730284 -0.32129061 -0.50717384 4283062610
3.354635 1.2216504 -0.42192385 4283192909
4.2740889 -0.3056207 -0.50792176 4283194707
3.3452516 1.2334651 -0.41947022 4283258186
4.2751546 -0.28770289 -0.50941747 4283983712
3.2992506 1.2296028 -0.41236871 4283323466
4.2859945 -0.27415827 -0.510598 4284509540
3.3087301 1.2469662 -0.41349646 4283389772
4.2820592 -0.25740132 -0.51000768 4284641125
4.2504697 -2.2429149 -0.481392 4284641644
3.299546 1.2579949 -0.41045055 4283256903
4.2730556 -0.239649 -0.50957412 4284048989
4.2544179 -2.2241559 -0.48340738 4284772462
4.3703113 1.6846104 -0.54192865 4284836451
4.2739439 -0.22323993 -0.50957412 4283260243
4.2490649 -2.2015653 -0.48441032 4284839023
4.38241 1.7086301 -0.54340637 4278455079
4.2794418 -0.20929961 -0.51166093 4282865231
4.2567282 -2.1857831 -0.48858634 4285035632
4.3809152 1.7265718 -0.54233658 4280158229
4.2802138 -0.19286624 -0.51166093 4282996301
4.2559943 -2.1647961 -0.49007073 4284904818
4.3702059 1.7408834 -0.5393014 4283849038
4.2809534 -0.17568284 -0.51166093 4282865485
4.2546344 -2.1445122 -0.49320784 4285101425
4.3913984 1.768893 -0.54023957 4282994760
4.2716179 -0.16036594 -0.51047516 4281943613
4.2668381 -2.1310875 -0.49455509 4285036402
4.3897491 1.7869562 -0.53832495 4283586384
4.2819476 -0.14429136 -0.51315647 4281549884
4.2701435 -2.1122913 -0.49819693 4285167218
4.3877096 1.8057964 -0.53640497 4282667078
4.2675605 -0.12814923 -0.51137257 4281549884
4.2597609 -2.0877573 -0.49860078 4285102197
4.3904958 1.8257891 -0.53503865 4281549882
4.272984 -0.11189203 -0.51196724 4281615677
4.2625184 -2.069768 -0.50221342 4285298295
4.3789582 1.8407445 -0.53365052 4283784530
4.2783284 -0.096341759 -0.51256186 4281549884
4.2657957 -2.0511551 -0.50333869 4285495926
4.3726091 1.856963 -0.52950507 4283849816
4.2737312 -0.078328975 -0.51196724 4283062864
4.2691879 -2.0317268 -0.50611085 4285627769
4.3890209 1.8820436 -0.53144097 4284310621
4.2789311 -0.064230859 -0.51256186 4286550654
4.2760935 -2.0167365 -0.50776118 4285693562
4.3777881 1.8962525 -0.52839005 4282538572
4.2741823 -0.04774506 -0.51196724 4286616448
4.2742071 -1.9967295 -0.50916356 4286088823
4.3749461 1.9159154 -0.52643973 4284246106
4.2592573 -0.031965964 -0.51167017 4286419846
4.2631278 -1.9725511 -0.51029694 4283851091
4.3866663 1.9393247 -0.52611971 4284310874
4.2792058 -0.015684178 -0.51405561 4289376935
4.2749462 -1.9581258 -0.51329899 4284114782
4.3752408 1.9534752 -0.52306575 4284309591
4.2792344 0 -0.51405561 4287930768
4.2818494 -1.9423329 -0.5157609 4284049759
4.3686566 0.01524955 -0.52402753 4288062354
4.2698069 -1.9198229 -0.51684862 4283983966
4.9591069 0.036352806 -0.59662139 4286220150
4.2814388 -1.9053239 -0.51985103 4284180574
4.9688687 0.054637767 -0.59781587 4285957490
4.2790489 -1.8855015 -0.52119696 4284180575
4.9488711 0.073423363 -0.59456313 4285496684
4.2815356 -1.8669984 -0.52227354 4284180574
4.9535322 0.091653228 -0.59515947 4285890931
4.283536 -1.849215 -0.52416092 4284246367
4.958107 0.11078359 -0.59575588 4286614656
4.2856984 -1.8306582 -0.52685636 4284115551
4.9478459 0.12869975 -0.59369928 4287075207
4.2692456 -1.8051565 -0.52647501 4283984223
4.9522777 0.14784527 -0.59429479 4287602064
4.2848287 -1.7932613 -0.52922499 4283984223
4.956768 0.16616508 -0.59402472 4287931027
4.2914262 -1.7766894 -0.53165698 4284049759
4.9509249 0.1850033 -0.59515947 4288062354
4.2839475 -1.7552283 -0.53156722 4284049759
4.9554844 0.20336442 -0.59315908 4288193427
4.3042073 -1.7442579 -0.53571004 4284181344
4.2919574 -1.7210065 -0.53503239 4284115552
2.8462546 0.13870713 -0.34131148 4287799443
4.2843356 -1.698884 -0.53652608 4283984223
2.8159809 0.1475793 -0.33774376 4287996820
4.2948947 -1.6848804 -0.53951997 4284050271
2.7906682 0.15699977 -0.33428285 4288259222
4.2918968 -1.6647171 -0.53996539 4284180575
2.7653534 0.16574536 -0.33083057 4288259733
4.2838845 -1.6435714 -0.5398196 4284180828
2.7646966 0.17636229 -0.33083057 4288456601
4.2805257 -1.6234549 -0.54184741 4284115552
2.7492282 0.18549544 -0.32857099 4288522392
4.2954779 -1.6111424 -0.54542494 4284049759
2.7434866 0.19569302 -0.32845905 4288785566
4.3433514 -1.6101024 -0.55235451 4284115552
2.7328494 0.2050043 -0.32727328 4289049249
4.3863325 -1.6077745 -0.55872142 4284115552
2.7173631 0.21433833 -0.32406741 4289442977
4.4200168 -1.6017689 -0.56392503 4284181345
2.7165031 0.22429189 -0.32454315 4290693563
4.4773593 -1.6031266 -0.57213545 4284050016
2.7108443 0.23430786 -0.32252738 4286813324
4.5299959 -1.6023763 -0.58062363 4284050016
2.7100232 0.24424708 -0.32205245 4286813326
4.5825033 -1.6020765 -0.58831638 4284115552
2.7090981 0.25370011 -0.32252738 4286616461
4.6494179 -1.6054628 -0.59785354 4284181344
2.6982303 0.2636129 -0.32087708 4279835683
4.7159376 -1.6091107 -0.60917515 4284247138
2.702194 0.27447882 -0.32099071 4280167468
4.6983643 -1.5830003 -0.60787207 4281286965
2.6913981 0.28287733 -0.31934476 4280298287
4.6945157 -1.5625676 -0.60838217 4284312931
2.6903987 0.29274592 -0.31887242 4285298555
4.7097077 -1.5475622 -0.61133313 4284246884
2.6941385 0.30457693 -0.31898433 4286879119
4.7009854 -1.5256287 -0.61122257 4284312931
2.6782622 0.31272808 -0.31676105 4286814351
4.6925297 -1.5029936 -0.61024147 4284247395
2.6772089 0.32208163 -0.31629041 4288194214
4.711997 -1.4902089 -0.61381024 4284378723
2.6761746 0.33191225 -0.31487846 4280298285
4.7080064 -1.4690853 -0.6142993 4284444516
2.6944094 0.3456398 -0.31767213 4280102440
4.703671 -1.4488355 -0.61478138 4284575332
2.7080748 0.3565248 -0.31893769 4278191623
4.7042465 -1.4292594 -0.61587787 4284444517
2.7066679 0.36788017 -0.31798422 4287011730
4.7092476 -1.4119461 -0.61759406 4284510309
2.7595975 0.38439867 -0.32385761 4287011473
4.7097731 -1.3924162 -0.61782801 4284510310
2.7386017 0.39219931 -0.32009995 4288588972
4.7051134 -1.3723065 -0.61829072 4284510310
2.7467775 0.40462914 -0.32173389 4280429871
4.7003975 -1.3513691 -0.62045372 4284706918
2.7799509 0.4194355 -0.32380012 4280429871
4.7008839 -1.3319883 -0.61897171 4284510567
2.729214 0.42299241 -0.31759724 4279181336
4.7007489 -1.313357 -0.62004709 4284444774
2.7523057 0.43641481 -0.31996694 4287274391
4.700418 -1.2955934 -0.62026787 4284576102
2.7409911 0.44492561 -0.31785697 4287274393
4.6957984 -1.27406 -0.62070435 4284576103
2.7983148 0.46476346 -0.32319516 4286152322
4.7054472 -1.2573005 -0.62133712 4284576613
2.8014071 0.47633749 -0.32376117 4280364850
4.7049127 -1.2387002 -0.62325186 4284576102
3.2595901 0.56771713 -0.37638924 4294966762
4.7046227 -1.2193266 -0.62431306 4284576102
3.2772098 0.58375996 -0.37632596 4294310109
4.7043595 -1.2000005 -0.62452334 4284576103
3.2802088 0.5955236 -0.37630582 4293651927
4.6991057 -1.1803339 -0.6232475 4284576360
3.2877975 0.60995078 -0.37626019 4292600012
4.6984725 -1.161014 -0.62514383 4284510822
3.2758405 0.62016088 -0.37456018 4292467913
4.7075143 -1.1449572 -0.62578428 4284641895
3.4102981 0.65918934 -0.38776526 4291943109
4.7069468 -1.1256945 -0.62598854 4284641896
3.3738632 0.66498369 -0.38268176 4291679939
4.7111287 -1.1075881 -0.6268332 4284707688
3.381094 0.67990601 -0.38318586 4290692791
4.7102184 -1.0891715 -0.62703478 4284707688
3.3641045 0.68932784 -0.38033074 4291350721
4.7046952 -1.0688806 -0.62574852 4284773994
3.3568201 0.70066482 -0.37858334 4289509287
4.7084746 -1.0516059 -0.62659055 4284904298
3.3494375 0.71255594 -0.37624174 4286549893
4.7123704 -1.0334954 -0.62743253 4284970090
3.3420737 0.7238031 -0.374502 4287602832
4.7112432 -1.014304 -0.62846994 4285561966
3.3588126 0.74094141 -0.37547877 4287207306
4.7099714 -0.99598134 -0.6286636 4284838496
3.3514788 0.75221568 -0.37253827 4286418564
4.7138681 -0.97791135 -0.62782341 4280561959
3.3392591 0.76233923 -0.36906886 4289905587
4.3722687 -0.89193243 -0.5811379 4280956205
3.3123443 0.76958793 -0.36401659 4288784281
4.3077979 -0.86000109 -0.57286459 4280891694
3.2903318 0.7771951 -0.36011767 4289903267
4.3258123 -0.84712261 -0.57249635 4280824874
3.3101757 0.78188235 -0.35748732 4289903780
4.3114071 -0.84586442 -0.56673056 4280825132
3.3179975 0.77029103 -0.35800999 4288982428
4.3187885 -0.86219525 -0.56416684 4280891694
3.3451705 0.76307464 -0.36062318 4289311908
4.4320612 -0.90412992 -0.57704628 4281087791
3.3577108 0.75299889 -0.36106789 4286747529
4.7203951 -0.98098415 -0.61248547 4280364323
3.3460083 0.73689216 -0.35950255 4287010952
4.7169061 -0.9991681 -0.60996097 4284838497
3.3438263 0.72357178 -0.35898077 4287537037
4.7040033 -1.0136045 -0.60618651 4283062345
3.3561852 0.71276695 -0.361222 4286549892
4.7096896 -1.0346308 -0.60659474 4284905067
3.368387 0.70246571 -0.36347017 4289048995
4.7108335 -1.0538594 -0.60469139 4284773482
3.3563869 0.68713599 -0.36129647 4291547842
4.7071443 -1.071165 -0.6030063 4284773481
3.3881266 0.68008977 -0.36564901 4291745734
4.7129717 -1.0915415 -0.60171288 4284707689
3.3759611 0.66478509 -0.36407068 4291943111
4.713882 -1.1108402 -0.59979433 4284707689
3.3930728 0.6546312 -0.36625215 4292337869
4.7098808 -1.1281344 -0.59894902 4284707688
3.2879674 0.62186223 -0.35465857 4292732366
4.7107406 -1.1474837 -0.59617794 4284642408
3.3049979 0.61194855 -0.3562395 4293126094
4.706604 -1.1647667 -0.59533167 4284772711
3.3071575 0.5998199 -0.35682613 4293915097
4.707212 -1.1841167 -0.59339964 4284641895
3.2652547 0.57927883 -0.3532331 4294310107
4.7030406 -1.2014128 -0.59170532 4284642408
2.9048064 0.50435811 -0.31455839 4287538078
4.7081013 -1.2219822 -0.59206641 4284510567
2.7841785 0.47240815 -0.30129707 4287340699
4.7137065 -1.2410153 -0.59072262 4284641896
2.7809348 0.46137816 -0.30125865 4281416760
4.7088852 -1.2599804 -0.58902109 4284576103
2.7433214 0.44432113 -0.29797816 4280299308
4.7093487 -1.2777365 -0.58876932 4284642406
2.7400723 0.4334946 -0.29696092 4280364078
4.7045765 -1.2967396 -0.58536255 4284576103
2.7416654 0.4229624 -0.29744512 4288653739
4.6955347 -1.3119001 -0.58221442 4284576102
2.7137005 0.40847093 -0.29424679 4287077012
4.7052202 -1.3332171 -0.58228594 4284510309
2.715198 0.39804065 -0.29472575 4287208084
4.7049356 -1.3526739 -0.58202273 4284510310
2.7164855 0.38806441 -0.29616258 4278191619
4.7044291 -1.3729979 -0.5809024 4284576103
2.7130318 0.3769469 -0.29562604 4280167981
4.7093253 -1.3922839 -0.5803653 4284576103
2.7292254 0.36900571 -0.29675496 4280167471
4.7092381 -1.4110476 -0.57837814 4284510310
2.6763535 0.35139823 -0.29133382 4288983214
4.7089224 -1.4306799 -0.57552665 4284182372
2.677573 0.34158012 -0.29180494 4287076498
4.7173786 -1.4539593 -0.5772689 4284313443
2.6788144 0.33129025 -0.29227605 4287076498
4.7121444 -1.4721819 -0.57382256 4284510310
2.6798472 0.32239902 -0.29274714 4284705899
4.6978607 -1.4848363 -0.5718081 4284444516
2.6910498 0.31231704 -0.29382539 4279837223
4.7059789 -1.5091125 -0.57181233 4284444516
2.6871858 0.30189109 -0.29375824 4279705639
4.7102427 -1.5295419 -0.56950438 4284247395
2.6932158 0.29210126 -0.29477105 4278190852
4.7050638 -1.5460364 -0.56777561 4284378724
2.6942172 0.28222281 -0.29524386 4288062878
4.7178602 -1.5712525 -0.56831789 4284247138
2.7052233 0.27287859 -0.29585278 4287865499
4.7027521 -1.5863067 -0.5637176 4284445029
2.7060504 0.26294661 -0.29727638 4283916640
4.6686969 -1.5939018 -0.56033188 4284247138
2.7021947 0.25210214 -0.29578561 4283262309
4.6065607 -1.592464 -0.55015796 4284181857
2.7079995 0.24263534 -0.29680184 4284840571
4.5445948 -1.5897138 -0.54174757 4284116062
2.7187638 0.23308028 -0.2983633 4287537817
4.487289 -1.5890322 -0.53227454 4284247138
2.719548 0.22310969 -0.29883954 4291153084
4.449419 -1.5922465 -0.52673572 4284181345
2.7252133 0.21400036 -0.29986101 4288851357
4.4013934 -1.594151 -0.52011681 4284115809
2.7360158 0.20380126 -0.30047256 4288719001
4.3676929 -1.6000775 -0.51518029 4284247138
2.7516515 0.19434473 -0.30210555 4288521624
4.3191867 -1.6028596 -0.50861853 4284181345
2.7622108 0.18491857 -0.30367741 4288193427
4.3002172 -1.6120639 -0.50376648 4284181855
2.7727683 0.17493364 -0.30525273 4288061841
4.2890258 -1.6283915 -0.50081921 4284247135
2.8328726 0.16830364 -0.31230086 4287996307
4.2924728 -1.6477259 -0.50029951 4284115809
2.8385692 0.15770672 -0.31185544 4287798417
4.3004694 -1.6689057 -0.50031185 4284181345
2.8986344 0.15038913 -0.31890446 4287732878
4.285686 -1.6804048 -0.49602002 4284312161
4.2888217 -1.6997966 -0.49628615 4284116064
4.9452529 0.21937352 -0.54474896 4288062354
4.2958264 -1.7234285 -0.49465922 4284181344
4.9608855 0.20271878 -0.54638976 4287864721
4.2856398 -1.7358629 -0.49251392 4284115552
4.9615641 0.18279943 -0.54725629 4287732878
4.2877703 -1.7576686 -0.49114677 4284181345
4.9671969 0.163911 -0.54780412 4287601292
4.2908034 -1.7773088 -0.48895851 4284115552
4.9725852 0.14758287 -0.54922026 4287338377
4.2894731 -1.7934458 -0.48948199 4284115552
4.9532418 0.12797503 -0.5470255 4287009412
4.2873716 -1.8119384 -0.4875685 4284050016
4.9685259 0.10841363 -0.54953891 4286286202
4.2940941 -1.8351307 -0.48587117 4284115552
4.9689059 0.089335106 -0.54953891 4286087799
4.2872496 -1.851706 -0.483426 4284181345
4.9594274 0.07271421 -0.54670846 4285365098
4.2857995 -1.8679674 -0.48230892 4284115552
4.9546051 0.053616077 -0.5470255 4286154356
4.2837071 -1.8857685 -0.48037145 4284181344
4.4476895 0.031827543 -0.49261364 4288193937
4.2902217 -1.9083356 -0.48026389 4284181344
4.2740088 0.0141732 -0.47185752 4288062611
4.2743521 -1.9200733 -0.47679299 4284115551
4.3805299 1.9521699 -0.4820694 4284310108
4.2590399 -0.0014866855 -0.47095484 4287733135
4.2852945 -1.9447975 -0.47635362 4283984223
4.3820424 1.9354523 -0.48574999 4284376413
4.2787223 -0.016429195 -0.47464657 4289180581
4.2789726 -1.9590665 -0.47471091 4283391059
4.3711319 1.910609 -0.48456493 4284904040
4.273818 -0.033567179 -0.47260344 4286681478
4.2443566 -1.9638655 -0.46761903 4284048216
4.3685861 1.8904558 -0.48770851 4280166178
4.2786436 -0.048541754 -0.473153 4286682240
4.2691798 -1.9934733 -0.46945664 4286484099
4.3803062 1.875592 -0.48904979 4284113495
4.2834063 -0.064298034 -0.47370255 4286617217
4.2710676 -2.0134549 -0.46797583 4286154883
4.3685985 1.8516611 -0.48949227 4283981143
4.2731619 -0.0820489 -0.47260344 4282404166
4.267664 -2.032829 -0.46599394 4285957504
4.3842902 1.8393854 -0.49300796 4284574560
4.2828031 -0.096442521 -0.47370255 4282403651
4.269731 -2.0521302 -0.46449459 4285891711
4.3727088 1.8148129 -0.49342415 4279179544
4.2823615 -0.11438139 -0.47370255 4282864715
4.2661538 -2.071533 -0.46249938 4285694332
4.3790917 1.7986755 -0.49590299 4284113241
4.2769914 -0.12843242 -0.473153 4282930508
4.2729588 -2.092376 -0.46063387 4285694332
4.3665972 1.7757552 -0.49711037 4283323726
4.2764668 -0.14485389 -0.473153 4283127887
4.2605042 -2.1065977 -0.45932254 4285628539
4.368835 1.7562604 -0.49905148 4283192139
4.2808728 -0.16071339 -0.47370255 4283259473
4.2709255 -2.1312666 -0.4570812 4285628539
4.3793154 1.7427412 -0.50204641 4282266413
4.2851901 -0.17735507 -0.4742521 4283194450
4.2277346 -2.1291029 -0.45078978 4285497212
4.3808837 1.7247926 -0.50316036 4281014051
4.2795467 -0.19283617 -0.47370255 4283654747
4.268405 -2.170171 -0.45516822 4285431673
4.377665 1.7050202 -0.50455761 4284442206
4.2738109 -0.20902422 -0.473153 4284509542
4.2474866 -2.1791642 -0.44958299 4285365880
3.502507 1.3486962 -0.40507743 4284310872
4.2779789 -0.22494806 -0.47370255 4284050018
4.2617841 -2.2062688 -0.44941428 4285496183
3.3125637 1.2603101 -0.38439909 4283520843
4.2870069 -0.24193265 -0.4748016 4283523161
4.2571244 -2.226517 -0.44736508 4285233011
3.2982094 1.2416867 -0.38347277 4283980628
4.2811308 -0.25734553 -0.4742521 4283128916
4.2455201 -2.2384088 -0.44438854 4284970609
3.3304977 1.2399246 -0.3885788 4283520843
4.2752342 -0.27346995 -0.47295487 4283128403
3.3583651 1.2356378 -0.39316988 4283520843
4.2742033 -0.28913766 -0.47295487 4283588438
3.3534012 1.2198755 -0.39332336 4283586636
4.278019 -0.30590174 -0.47350356 4284247395
3.3576555 1.2075065 -0.39519173 4283324493
4.2819066 -0.32195818 -0.47330272 4284905068
3.3807364 1.2011672 -0.39989817 4283455565
4.2509122 -0.33604714 -0.47001594 4285431411
3.4783244 1.2228646 -0.41226274 4283521358
4.2793703 -0.35408419 -0.47330272 4285102446
3.4315736 1.1903015 -0.40805289 4283521356
4.2731094 -0.37009141 -0.47200641 4284444517
3.3934109 1.1631477 -0.40490729 4282007614
4.2816238 -0.3866446 -0.47310024 4283522393
3.3784945 1.1448718 -0.40390924 4282074438
4.2653456 -0.40169173 -0.47071174 4282931026
3.387641 1.1328313 -0.40571868 4283652690
4.2786837 -0.41877466 -0.47234991 4282996821
3.358608 1.1088028 -0.4048554 4283521358
4.2868514 -0.43619844 -0.47419414 4283655000
3.371711 1.1007425 -0.40599263 4283456079
4.2656174 -0.44983995 -0.47050917 4285628021
3.3332257 1.0740334 -0.40209752 4283587919
4.2688804 -0.46676445 -0.47030485 4285299825
3.3368716 1.0617238 -0.40454227 4283456333
4.2817941 -0.48406407 -0.47344208 4282403655
3.3265054 1.0443766 -0.40464646 4283652431
4.2554655 -0.4976435 -0.46846846 4286746755
3.3254318 1.0306653 -0.40528533 4283652944
4.2782044 -0.51620442 -0.47193789 4286549376
3.3292291 1.0178474 -0.40650055 4283652431
4.2811227 -0.53324199 -0.47248217 4286943621
3.3185387 1.0012939 -0.40597093 4283652942
4.2841511 -0.54957241 -0.47227269 4285562998
3.3220863 0.98846322 -0.40839076 4283652942
4.2870188 -0.56668049 -0.47206146 4285760377
3.3445385 0.9818145 -0.41255626 4283653712
4.2849131 -0.58238935 -0.47206146 4285890935
3.3195286 0.96064377 -0.41023645 4284115035
4.2778039 -0.59816098 -0.47076496 4286483070
3.3276634 0.94979376 -0.41203383 4283587665
4.2755013 -0.61382413 -0.47151884 4286614915
3.3259718 0.93676782 -0.413252 4283784530
4.2781119 -0.6309737 -0.47130671 4286616198
3.3151453 0.91937113 -0.41327208 4283719251
4.2807665 -0.64740509 -0.47109282 4286813064
3.3085487 0.9051165 -0.41387546 4283653971
4.2783303 -0.66384977 -0.47033718 4286878855
3.3212893 0.89553076 -0.41627413 4284312414
4.2806964 -0.6802935 -0.4716337 4287141513
3.295779 0.87509137 -0.41386035 4281614147
4.2733898 -0.69443446 -0.47109282 4287141259
3.2748151 0.85668856 -0.41202986 4280694577
4.2905102 -0.71336716 -0.47249717 4287273099
3.2681887 0.84156072 -0.41317773 4284245077
4.2729464 -0.72885305 -0.46936414 4287207306
3.3097415 0.83872271 -0.41923052 4283982677
4.2801208 -0.74623096 -0.46968237 4287339408
3.2982063 0.82294667 -0.41858912 4284048470
4.2725153 -0.7602815 -0.46990237 4280822300
3.3106956 0.81257218 -0.42219126 4284246108
4.2841821 -0.78011268 -0.47075719 4283128403
3.2557011 0.78643405 -0.41540131 4290034603
4.2911491 -0.79764169 -0.47107017 4282339398
3.2585552 0.77389377 -0.41657043 4288587670
4.2733226 -0.8113156 -0.47021976 4280955948
3.2755795 0.76526511 -0.42077032 4289048221
4.2801614 -0.8288784 -0.47053364 4281482802
3.3072898 0.75929326 -0.42627075 4284839532
4.2672739 -0.84339511 -0.46870139 4281417269
3.3002272 0.74494886 -0.42620534 4287075720
4.337254 -0.87375599 -0.47673628 4281350963
3.2978196 0.73231685 -0.42675966 4287602062
4.6946354 -0.96281636 -0.51553863 4281285683
3.3052344 0.72065765 -0.42915764 4287141259
4.6909866 -0.97999811 -0.51637501 4284970083
3.3028572 0.70746827 -0.42970747 4286681478
4.6921401 -0.99905711 -0.51607341 4285232492
3.3150358 0.69677496 -0.43274319 4289048995
4.698164 -1.0183542 -0.51714301 4284970860
3.3075569 0.6825543 -0.43383387 4290035631
4.6894526 -1.035334 -0.51577002 4284970860
3.3390927 0.67570543 -0.43944004 4290101424
4.6856265 -1.0525148 -0.51577002 4284773739
3.3462243 0.66378415 -0.44246143 4290364081
4.7008476 -1.0749109 -0.51874739 4284773994
3.3678744 0.65525854 -0.44683045 4290626738
4.691843 -1.0918261 -0.51821256 4284511337
3.2677133 0.62275857 -0.43617368 4291087543
4.6923828 -1.1100972 -0.52127218 4284773481
3.2668846 0.62260062 -0.44255933 4290824630
4.6963272 -1.1110302 -0.53023326 4284838504
3.3566718 0.65307891 -0.45688137 4290495665
4.6852126 -1.090283 -0.53447247 4284839274
3.3395565 0.66306734 -0.45489496 4289904557
4.6936569 -1.0741287 -0.53838623 4284773994
3.3224535 0.67233831 -0.45350012 4289772458
4.6926227 -1.0549465 -0.54034907 4284708201
3.3052871 0.68208587 -0.45151109 4289640105
4.69133 -1.0366071 -0.5423066 4284970858
3.2880943 0.69171149 -0.44952205 4289443496
4.6995811 -1.0203791 -0.54622483 4285036135
3.3096893 0.70893174 -0.45342788 4286418304
4.6886082 -0.99916053 -0.54704213 4285298796
3.2924173 0.71846503 -0.45143622 4286353540
4.6870952 -0.98089284 -0.54898268 4284773731
3.304302 0.73436153 -0.45224637 4287471246
4.6760421 -0.95985359 -0.54894054 4281219377
3.3112562 0.74865323 -0.45357066 4286550401
4.2799768 -0.86221731 -0.50438672 4281285170
3.2939444 0.7580452 -0.45099425 4285826429
4.2829962 -0.84572577 -0.50667268 4281154097
3.2722604 0.76448965 -0.44717619 4288588184
4.2908564 -0.8309496 -0.50801194 4280759855
3.2593863 0.77589422 -0.44585708 4288390806
4.2741489 -0.81069976 -0.50874007 4282008636
3.2612004 0.78956991 -0.44651663 4289376671
4.2817111 -0.79588735 -0.51160115 4281943613
3.2439964 0.79800266 -0.44337183 4283917656
4.2797627 -0.77853632 -0.51177704 4280692773
3.2410583 0.81049037 -0.4422057 4284048470
4.2873874 -0.76370001 -0.51312131 4288128408
3.2859626 0.83513874 -0.44876662 4284048470
4.2704563 -0.74377793 -0.51305068 4287143056
3.2542324 0.83978409 -0.44365695 4281550911
4.2681708 -0.72727185 -0.51321876 4286878857
3.2512066 0.8511188 -0.44424355 4281155405
4.2754393 -0.71239513 -0.5160768 4286747271
3.267303 0.86814094 -0.4462744 4280232482
4.2680755 -0.69433558 -0.51715875 4286747784
3.264096 0.88072067 -0.44509426 4283653973
4.2752867 -0.68019879 -0.51850808 4286877826
3.2704022 0.89590788 -0.44521594 4283718737
4.2729878 -0.66225708 -0.51866812 4286680449
3.272023 0.90925753 -0.44468144 4283653712
4.2703214 -0.64506304 -0.52033401 4286680449
3.2782001 0.92454809 -0.44479084 4283718735
4.2823892 -0.63084084 -0.5222857 4286746501
3.2843232 0.93928361 -0.44608572 4283718224
4.2746816 -0.61294502 -0.52334893 4286549892
3.2951272 0.95607573 -0.44683045 4283456590
4.2817254 -0.59794736 -0.52470505 4286549893
3.2961881 0.97012091 -0.44747615 4283652942
4.2838078 -0.5814777 -0.52621412 4287141513
3.2643247 0.97375786 -0.44181833 4283652431
4.2759776 -0.56446165 -0.52575862 4286484097
3.3129184 1.002122 -0.44768441 4283586897
4.2780223 -0.54802728 -0.52651137 4285825400
3.3239517 1.0175029 -0.44839516 4283390286
4.2747083 -0.53320074 -0.5274092 4286023548
3.3008664 1.025578 -0.44463 4283456079
4.2866673 -0.51646656 -0.52937806 4286614916
3.3113508 1.0421591 -0.4459379 4283455565
4.268723 -0.49843869 -0.52769423 4282667854
3.3078408 1.0537586 -0.44472611 4283521358
4.270514 -0.48203403 -0.52844435 4284378983
3.3462474 1.0801635 -0.45044398 4283258700
4.2671347 -0.46581995 -0.52933246 4284641128
3.347204 1.0940348 -0.44923559 4283258702
4.273735 -0.44994181 -0.53069448 4284050018
3.3431273 1.1069283 -0.4480063 4282995788
4.2702675 -0.43526396 -0.53008163 4283588954
3.3533792 1.1239777 -0.44804752 4284708468
4.2816534 -0.41831091 -0.53355992 4283588954
3.3725243 1.1448176 -0.45118952 4280494375
4.2733469 -0.40094042 -0.53232908 4283457368
3.3872948 1.1636945 -0.45182782 4283257671
4.2893343 -0.38658616 -0.53643036 4283523161
3.3688936 1.1718544 -0.4487054 4283192391
4.2708855 -0.36989877 -0.53395832 4283588954
3.4115956 1.2007432 -0.45305243 4283323977
4.2622304 -0.35341498 -0.53346884 4283785819
3.3046982 1.1761003 -0.43815565 4283258184
4.2882867 -0.33900169 -0.53656322 4283983196
3.3328409 1.201211 -0.44063893 4283192391
4.2844787 -0.32139957 -0.53744411 4284378723
3.33301 1.2157521 -0.44001767 4283192391
4.2805324 -0.30608144 -0.5375725 4284576102
3.347441 1.2342724 -0.44185665 4283126598
4.2766752 -0.29005471 -0.53695101 4284444517
3.2919643 1.2275418 -0.43325713 4283126346
4.2728066 -0.27331465 -0.53632957 4283523163
4.24401 -2.2603822 -0.50623435 4284178783
3.2966545 1.2437297 -0.43325114 4283127114
4.2736373 -0.25689507 -0.53782409 4282931024
4.2386832 -2.2376411 -0.5088467 4284114273
3.2922852 1.2558848 -0.43140617 4283323975
4.2893152 -0.24206291 -0.54044348 4282865231
4.2554297 -2.2265766 -0.5124172 4284311398
3.6812406 1.4204725 -0.48098746 4284375382
4.2852592 -0.22533087 -0.53981942 4283062094
4.2415609 -2.1986163 -0.51310039 4284508518
4.3837471 1.7100332 -0.57109112 4278192153
4.2711911 -0.2088961 -0.53794724 4282865231
4.2537727 -2.1852038 -0.51613837 4284902506
4.377635 1.7261617 -0.56944859 4284896864
4.2818737 -0.19294101 -0.53919536 4282996303
4.2618909 -2.1687317 -0.51864225 4284771690
4.3802891 1.7466719 -0.5698269 4283717454
4.2774072 -0.17703295 -0.54006571 4282930508
4.2560911 -2.146178 -0.52118474 4284574820
4.3741341 1.7628261 -0.56735772 4282797635
4.2681408 -0.1602354 -0.53881407 4282732618
4.2503457 -2.1237774 -0.52204221 4285034860
4.390595 1.7890874 -0.5678615 4283390288
4.2736826 -0.14401284 -0.53943992 4282272067
4.2583055 -2.1073606 -0.52370071 4285099887
4.3842826 1.8052807 -0.56537896 4282400834
4.2791853 -0.12700324 -0.54006571 4282075199
4.2617736 -2.0878215 -0.52812296 4283979605
4.395927 1.8298477 -0.56525397 4282270260
4.2696843 -0.11180561 -0.53881407 4281615418
4.2686739 -2.0736773 -0.52812296 4285559407
4.3940392 1.8479866 -0.56334752 4283718220
4.2797956 -0.096374795 -0.54156005 4281615164
4.2582769 -2.048455 -0.53003478 4284572253
4.3741212 1.8576052 -0.5590989 4283653458
4.2602959 -0.079570375 -0.53904992 4286418817
4.2744756 -2.036989 -0.53362876 4283319624
4.3028374 1.8477553 -0.55010247 4284376414
4.2704782 -0.064103968 -0.54030496 4286353792
4.2769976 -2.0189881 -0.53719634 4282793019
3.8912697 1.687129 -0.49448302 4281679421
4.2756529 -0.047761492 -0.54093254 4286419585
4.2800474 -2.0003679 -0.53828126 4284506459
3.8487444 1.6854763 -0.48911756 4281877562
4.2756157 -0.031342462 -0.5424251 4286419082
4.2780776 -1.9803749 -0.53961766 4283851602
3.8061426 1.6842666 -0.4823131 4284179286
4.2707419 -0.015653156 -0.54179579 4289048738
4.2761898 -1.9595984 -0.54258549 4284904040
3.7321515 1.6679088 -0.47153944 4283982425
4.2856512 0.00074798724 -0.54368359 4288062100
4.2785616 -1.9417419 -0.54447275 4284180574
3.8711221 1.7470654 -0.48765022 4283850840
4.3502045 0.015185138 -0.55110472 4287799182
4.2806101 -1.9246805 -0.54553556 4283983966
4.9503007 0.03628825 -0.62714088 4286417269
4.2782998 -1.9048219 -0.5468331 4284049759
4.954865 0.055348679 -0.62949896 4286023028
4.2758145 -1.8849674 -0.54893577 4284180574
4.9549584 0.073513679 -0.62690437 4285298794
4.2827568 -1.8684206 -0.55138242 4284180575
4.9445014 0.09234941 -0.6273756 4286285430
4.2893105 -1.8525962 -0.5538289 4284114782
4.9490891 0.1105821 -0.62800491 4286680447
4.2870831 -1.8321344 -0.55427921 4284180575
4.9338613 0.1291977 -0.6252557 4287140998
4.2843566 -1.8124273 -0.55553448 4284180575
4.9531875 0.14787243 -0.62776929 4287798930
4.2771878 -1.7900635 -0.55699301 4284115552
4.9526925 0.16689384 -0.62690437 4288127893
4.2972078 -1.7799617 -0.56121755 4284049759
4.9619288 0.18628173 -0.62815946 4288259222
4.2805567 -1.7547115 -0.55983764 4283983966
3.1274672 0.12889254 -0.39542636 4287469965
4.2869911 -1.7381523 -0.56225985 4283918173
2.898994 0.13062853 -0.36659971 4287667344
4.2839375 -1.7186587 -0.56266457 4284246368
2.8490114 0.13884147 -0.35983521 4287996307
4.2948437 -1.7039182 -0.56568891 4284049759
2.8285172 0.14873134 -0.35832074 4288193940
4.2822132 -1.6807681 -0.56647021 4284049758
2.8131573 0.15826496 -0.35594636 4288391319
4.30233 -1.6696278 -0.5699144 4284049759
2.8076391 0.16877161 -0.3548288 4288522391
4.2897043 -1.6466632 -0.56906712 4284049759
2.7624154 0.17670086 -0.34919658 4288785049
4.286438 -1.6265531 -0.57023865 4284050271
2.7519112 0.18615893 -0.34746361 4288916635
4.301475 -1.6142482 -0.57307673 4284049759
2.7363913 0.19566692 -0.34510997 4289179807
4.3400154 -1.6097274 -0.57902467 4284115551
2.7307689 0.20532754 -0.344008 4289311907
4.3828621 -1.6073701 -0.58643389 4284115551
2.7200694 0.21502948 -0.34276158 4289706151
4.4259262 -1.6039104 -0.59470618 4284049759
2.7193224 0.22500251 -0.34228536 4290757303
4.4691343 -1.6010617 -0.59971952 4284115551
2.7086124 0.23459126 -0.34056616 4279838757
4.5309644 -1.6036087 -0.61059511 4284115551
2.7127347 0.24496879 -0.34071225 4280299055
4.5927906 -1.6065727 -0.61985511 4284115552
2.7068937 0.25492349 -0.33961713 4280429873
4.654974 -1.6082907 -0.62915659 4284246368
2.7011085 0.26389408 -0.33852372 4287668122
4.7078452 -1.6063496 -0.63722897 4284246368
2.6951497 0.27423859 -0.33743203 4286812811
4.6946921 -1.5826755 -0.63641709 4281417522
2.6991692 0.28417039 -0.33757633 4286681229
4.7005234 -1.5645673 -0.6381464 4284181857
2.6880834 0.29391825 -0.33681402 4285298555
4.7105126 -1.5487379 -0.64224714 4284247395
2.6820633 0.30368593 -0.33572492 4280429360
4.7114944 -1.5290393 -0.64333397 4284115809
2.6861444 0.31317323 -0.3349261 4280296495
4.6979671 -1.5056393 -0.64248019 4284247650
2.6748986 0.3232246 -0.33416727 4278192904
4.6940455 -1.4845316 -0.64290726 4284247650
2.7034154 0.33576992 -0.33738428 4287208598
4.7087045 -1.4702052 -0.64592409 4284378723
2.707082 0.34774569 -0.33656979 4288328107
4.6998863 -1.4476699 -0.6456933 4284182372
2.7008739 0.35653594 -0.33643332 4289313206
4.7005591 -1.4281391 -0.64589983 4284248165
2.7046988 0.3671318 -0.33514068 4279966239
4.7102938 -1.4122598 -0.64826822 4284379236
2.7032609 0.37799421 -0.33466429 4286679687
4.7012043 -1.3898829 -0.64801896 4284313188
2.7116921 0.38882855 -0.33635938 4287535507
4.6822577 -1.3656403 -0.64644533 4284445029
2.7199752 0.40165097 -0.33661833 4278193420
4.6921215 -1.3489898 -0.6479544 4284445029
2.7286172 0.41217744 -0.33638871 4280034089
4.6968164 -1.3317215 -0.64965862 4284509540
2.7319772 0.42342067 -0.33651119 4278915861
4.6921301 -1.310949 -0.65004015 4284510310
2.7452295 0.43578398 -0.33735344 4286815634
4.701798 -1.294208 -0.65155262 4284576103
2.7435939 0.44633108 -0.33686829 4287208598
4.6967244 -1.2743114 -0.65192705 4284576103
2.7664797 0.4604685 -0.33938655 4288588458
4.7062607 -1.2575179 -0.65344113 4284510567
2.8333163 0.48278087 -0.34679291 4280560946
4.7058249 -1.2389402 -0.65447503 4284510310
3.2472782 0.5655728 -0.39712849 4294967283
4.7008433 -1.2183472 -0.65398973 4284510567
3.2549939 0.57980269 -0.39717057 4293586645
4.7052655 -1.2002317 -0.65568477 4284510310
3.2873108 0.59799832 -0.39901251 4293323220
4.7047157 -1.1817429 -0.65586233 4284772712
3.2801776 0.6097216 -0.39783731 4292533193
4.7041864 -1.1624259 -0.6568839 4284576102
3.2634227 0.61899012 -0.39490184 4292008642
4.7085266 -1.1452035 -0.65603817 4284641895
3.3829541 0.65512896 -0.40905759 4291548094
4.7074542 -1.1275531 -0.65705711 4284641895
3.3563137 0.6627419 -0.40491632 4291154111
4.707201 -1.1066647 -0.65722859 4284641893
3.3538823 0.67565209 -0.40372211 4290890940
4.7111144 -1.0893786 -0.65807259 4284838504
3.3564546 0.68898118 -0.40251401 4290496695
4.7102065 -1.0701327 -0.65908438 4284904551
3.3491833 0.70029086 -0.40073633 4289245345
4.709558 -1.050985 -0.65756619 4285035626
3.3515997 0.71423882 -0.39892563 4286747269
4.708427 -1.0326306 -0.65773237 4284904297
3.3442414 0.7254948 -0.39715299 4287470992
4.7167335 -1.0172091 -0.6592505 4285036135
3.346416 0.73943186 -0.39653313 4287142027
4.7108598 -0.99616927 -0.65957767 4284837984
3.3438857 0.75173759 -0.39473864 4286616196
4.7099128 -0.97709078 -0.65805954 4280824362
3.3653197 0.77014291 -0.39639401 4289576622
4.3785706 -0.89083028 -0.61207718 4281087533
3.2756503 0.76226771 -0.38377985 4288850842
4.313899 -0.86121917 -0.60180938 4281153584
3.2925637 0.77893585 -0.38250446 4288982167
4.3126211 -0.84375781 -0.59883082 4281088046
3.3124225 0.78363401 -0.37999886 4289245339
4.3176999 -0.84631646 -0.59566653 4281153839
3.2960472 0.76640779 -0.3777799 4288916120
4.3103671 -0.86051404 -0.5911603 4281153326
3.3327427 0.7620756 -0.38166308 4290036401
4.4431462 -0.90558362 -0.60744727 4281022253
3.3550377 0.75362957 -0.38388208 4286812294
4.7068291 -0.97816485 -0.64144349 4280232737
3.3676114 0.74288243 -0.38499156 4287142281
4.7130642 -0.99835426 -0.64024353 4284837983
3.3507552 0.72629559 -0.3839694 4287733646
4.7143278 -1.0166903 -0.64006054 4283127625
3.3487248 0.71240431 -0.38281539 4286681476
4.7107158 -1.0348561 -0.63753533 4284839274
3.3560462 0.70111454 -0.38456777 4289246115
4.7071409 -1.0530334 -0.63416803 4284773994
3.368449 0.69021797 -0.38568249 4291088319
4.7130256 -1.0725033 -0.634628 4284708201
3.3756948 0.67882031 -0.38744178 4290758839
4.7091956 -1.0906669 -0.63209707 4284707688
3.3929677 0.66874921 -0.38851547 4291548353
4.7054882 -1.1079954 -0.62956601 4284707688
3.3905175 0.65536588 -0.38795725 4291878086
4.7061281 -1.1272354 -0.62936711 4284641896
3.2805936 0.62106067 -0.37628388 4292402633
4.6973724 -1.1442274 -0.62534714 4284641895
3.2925532 0.61083305 -0.37798825 4292665805
4.7028799 -1.1638452 -0.62578428 4284576615
3.299763 0.59907365 -0.37854907 4293651927
4.708313 -1.1843938 -0.62452334 4284510567
3.2480633 0.57739848 -0.37295589 4294703838
4.6949592 -1.1976027 -0.62155622 4284641896
2.9320836 0.50962138 -0.33644664 4278191108
4.7044077 -1.2210236 -0.62261653 4284576102
2.7771394 0.47221115 -0.31896454 4279574051
4.7096958 -1.2417175 -0.62048697 4284576100
2.7641191 0.45908403 -0.31825498 4288653738
4.7100091 -1.2602811 -0.62026787 4284576613
2.7363057 0.44416508 -0.31535313 4287339670
4.7007647 -1.2771695 -0.61623633 4284510310
2.742898 0.43443233 -0.31591827 4287405461
4.7009377 -1.2957367 -0.61601287 4284510309
2.7395077 0.4236086 -0.31583697 4278192647
4.7061486 -1.3148657 -0.61556047 4284444774
2.7608187 0.41605601 -0.31761372 4280364850
4.7011418 -1.3338345 -0.61300194 4284510310
2.7228954 0.40013999 -0.31405324 4280299057
4.7061992 -1.3530372 -0.61253732 4284510567
2.7587802 0.3945978 -0.31850782 4287996835
4.6961718 -1.3705881 -0.61020911 4284444774
2.7258217 0.37969384 -0.31405324 4287273875
4.7059398 -1.3912829 -0.6094963 4284444516
2.7123826 0.36721054 -0.31330803 4287273623
4.7055197 -1.4108284 -0.6083979 4284510309
2.6988811 0.3553144 -0.31207731 4278587148
4.7052679 -1.4295697 -0.60729587 4284509540
2.6804621 0.34242412 -0.31027099 4280364333
4.7095327 -1.450641 -0.60594136 4284312930
2.6767159 0.33197939 -0.3101714 4280429360
4.7086101 -1.4710776 -0.60482961 4284313443
2.6631222 0.31991535 -0.3089259 4288325286
4.6983962 -1.4877119 -0.60250086 4284313188
2.6888916 0.31301787 -0.31225881 4286814353
4.7072911 -1.5095333 -0.60259563 4284312931
2.6901281 0.30269706 -0.31178632 4286879117
4.7065797 -1.5292604 -0.59974581 4284378724
2.701041 0.29390395 -0.31340471 4287206805
4.6964264 -1.5450147 -0.59741855 4284377954
2.702095 0.28352481 -0.31387889 4280364078
4.7047849 -1.5678101 -0.59748697 4284115809
2.7030616 0.27361372 -0.31435308 4280364333
4.7086129 -1.5882835 -0.59694856 4284444768
2.7040377 0.2632274 -0.31482726 4278258702
4.6792846 -1.5984282 -0.59137785 4284181857
