# .PCD v0.7 - Point Cloud Data file format
VERSION 0.7
FIELDS x y z intensity
SIZE 4 4 4 4
TYPE F F F F
COUNT 1 1 1 1
WIDTH 1381
HEIGHT 1
VIEWPOINT 0 0 0 1 0 0 0
POINTS 1381
DATA ascii
3.0710001 4.6820002 -1.67 0.31
3.0669999 4.7080002 -1.676 0.34999999
3.0539999 4.7210002 -1.678 0.34
3.036 4.7249999 -1.676 0.34999999
3.0220001 4.7360001 -1.676 0.33000001
3.02 4.7490001 -1.679 0.31999999
3.0090001 4.7649999 -1.682 0.31999999
2.993 4.7729998 -1.681 0.31999999
2.9760001 4.7789998 -1.6799999 0.31999999
2.967 4.7979999 -1.684 0.31999999
2.951 4.8060002 -1.683 0.31999999
2.948 4.8179998 -1.686 0.30000001
2.9349999 4.8309999 -1.687 0.30000001
2.9189999 4.8390002 -1.687 0.31999999
2.908 4.8540001 -1.689 0.34
2.8940001 4.8670001 -1.6900001 0.31
2.8840001 4.8839998 -1.693 0.30000001
2.865 4.8860002 -1.691 0.31
2.859 4.8940001 -1.692 0.34
2.845 4.9050002 -1.693 0.28999999
2.8329999 4.9200001 -1.6950001 0.31999999
2.823 4.9390001 -1.699 0.34
2.8080001 4.948 -1.699 0.28999999
2.7950001 4.9619999 -1.701 0.34
2.773 4.9590001 -1.696 0.28
2.7690001 4.9889998 -1.704 0.34999999
2.7579999 4.987 -1.702 0.31999999
2.744 4.9990001 -1.7029999 0.31999999
2.727 5.006 -1.7029999 0.28
2.7179999 5.026 -1.707 0.34
2.7030001 5.0359998 -1.707 0.28999999
2.694 5.0560002 -1.712 0.33000001
2.6700001 5.0510001 -1.707 0.25999999
2.674 5.0770001 -1.715 0.16
2.661 5.0910001 -1.717 0.20999999
2.6500001 5.1090002 -1.72 0.25999999
2.638 5.1240001 -1.723 0.25999999
2.6199999 5.1290002 -1.721 0.22
2.612 5.1539998 -1.728 0.16
2.5940001 5.1589999 -1.726 0
2.585 5.1599998 -1.725 0
2.573 5.1760001 -1.728 0
2.5510001 5.1739998 -1.724 0.039999999
2.5480001 5.2080002 -1.734 0.15000001
2.546 5.2449999 -1.744 0.28
2.536 5.2659998 -1.749 0.28999999
2.5079999 5.25 -1.74 0.2
2.487 5.2290001 -1.7309999 0.13
2.461 5.217 -1.724 0.2
2.4430001 5.2220001 -1.723 0.23
2.425 5.2259998 -1.722 0.30000001
2.4059999 5.2270002 -1.72 0.31
2.385 5.2249999 -1.717 0.28999999
2.3699999 5.2360001 -1.7180001 0.34
2.365 5.2470002 -1.72 0.30000001
2.346 5.2480001 -1.7180001 0.28999999
2.3340001 5.2649999 -1.721 0.34
2.3139999 5.2659998 -1.719 0.30000001
2.303 5.2849998 -1.723 0.34999999
2.283 5.2839999 -1.72 0.33000001
2.266 5.2909999 -1.72 0.28
2.247 5.2930002 -1.7180001 0.30000001
2.243 5.3049998 -1.721 0.31
2.2290001 5.3189998 -1.724 0.34
2.2060001 5.3119998 -1.719 0.28999999
2.191 5.322 -1.72 0.31
2.178 5.3379998 -1.723 0.34999999
2.1589999 5.3390002 -1.721 0.30000001
2.1470001 5.3569999 -1.725 0.34
2.1359999 5.355 -1.723 0.30000001
2.118 5.3600001 -1.723 0.31
2.1040001 5.3720002 -1.724 0.31
2.082 5.3660002 -1.72 0.31
2.0710001 5.388 -1.726 0.31
2.052 5.388 -1.723 0.31999999
2.036 5.3979998 -1.724 0.30000001
2.026 5.3959999 -1.723 0.33000001
2.0109999 5.4089999 -1.725 0.34
1.994 5.4130001 -1.724 0.34
1.9809999 5.4320002 -1.729 0.31
1.9630001 5.4369998 -1.728 0.31999999
1.944 5.4369998 -1.726 0.31
1.928 5.4450002 -1.727 0.34
1.918 5.4450002 -1.726 0.34
1.903 5.4559999 -1.728 0.34
1.887 5.4660001 -1.729 0.34
1.869 5.4699998 -1.728 0.31999999
1.851 5.474 -1.728 0.31
1.8329999 5.4759998 -1.726 0.31
1.818 5.4889998 -1.729 0.31999999
1.8099999 5.4920001 -1.729 0.31999999
1.793 5.4990001 -1.729 0.31999999
1.778 5.5120001 -1.732 0.34
1.7589999 5.5120001 -1.73 0.31999999
1.743 5.5229998 -1.732 0.31999999
1.7309999 5.5450001 -1.737 0.31
1.711 5.5409999 -1.734 0.33000001
1.692 5.5430002 -1.733 0.31999999
1.6849999 5.5510001 -1.735 0.31
1.6670001 5.553 -1.734 0.31999999
1.65 5.5619998 -1.735 0.36000001
1.636 5.5780001 -1.738 0.30000001
1.6109999 5.5570002 -1.73 0.31
1.598 5.5770001 -1.735 0.31999999
1.584 5.5949998 -1.739 0.31
1.573 5.5879998 -1.7359999 0.37
1.556 5.5970001 -1.737 0.30000001
1.541 5.6090002 -1.74 0.31999999
1.518 5.5970001 -1.734 0.30000001
1.501 5.6040001 -1.735 0.31999999
1.492 5.6399999 -1.745 0.37
1.469 5.6240001 -1.738 0.30000001
1.4630001 5.6360002 -1.742 0.30000001
1.447 5.6469998 -1.744 0.31999999
1.423 5.6300001 -1.737 0.33000001
1.4069999 5.6399999 -1.738 0.31
1.392 5.6550002 -1.742 0.31
1.374 5.658 -1.742 0.31999999
1.354 5.6529999 -1.738 0.31999999
1.349 5.6729999 -1.745 0.31999999
1.327 5.6570001 -1.738 0.33000001
1.311 5.6690001 -1.74 0.31
1.296 5.6880002 -1.745 0.31999999
1.273 5.6700001 -1.738 0.31
1.256 5.677 -1.739 0.31999999
1.242 5.698 -1.745 0.34
1.229 5.6789999 -1.738 0.25
1.215 5.7020001 -1.744 0.16
1.194 5.691 -1.739 0.18000001
1.175 5.6890001 -1.737 0.2
1.1569999 5.6939998 -1.738 0.23999999
1.15 5.75 -1.755 0.23
1.137 5.776 -1.762 0.23
1.125 5.8119998 -1.773 0
1.107 5.77 -1.7589999 0
1.079 5.7210002 -1.742 0
1.066 5.7490001 -1.749 0.1
1.048 5.7540002 -1.75 0.27000001
1.025 5.7329998 -1.742 0.23
1.01 5.7509999 -1.747 0.28999999
0.99900001 5.744 -1.744 0.18000001
0.97899997 5.7319999 -1.739 0.28
0.963 5.7480001 -1.743 0.34
0.94599998 5.7600002 -1.7460001 0.33000001
0.92500001 5.743 -1.74 0.28999999
0.90700001 5.7470002 -1.74 0.30000001
0.88999999 5.7579999 -1.743 0.31
0.87099999 5.7550001 -1.7410001 0.31
0.86500001 5.7709999 -1.7460001 0.37
0.84500003 5.7639999 -1.743 0.23
0.82599998 5.763 -1.742 0.31999999
0.80900002 5.77 -1.743 0.31999999
0.79100001 5.7719998 -1.743 0.30000001
0.773 5.776 -1.743 0.33000001
0.75400001 5.7729998 -1.742 0.30000001
0.745 5.7779999 -1.743 0.34
0.72600001 5.7729998 -1.74 0.31
0.70899999 5.7810001 -1.742 0.31999999
0.69099998 5.7909999 -1.745 0.33000001
0.67299998 5.7870002 -1.743 0.30000001
0.65499997 5.7930002 -1.744 0.34999999
0.63700002 5.8010001 -1.7460001 0.34
0.62699997 5.79 -1.742 0.40000001
0.60900003 5.7979999 -1.744 0.34999999
0.59200001 5.8070002 -1.7460001 0.38999999
0.57300001 5.8049998 -1.745 0.38999999
0.55500001 5.809 -1.7460001 0.38999999
0.53600001 5.8049998 -1.744 0.40000001
0.51800001 5.809 -1.745 0.38999999
0.50999999 5.8150001 -1.7460001 0.31999999
0.49200001 5.8189998 -1.747 0.47
0.47299999 5.8200002 -1.747 0.38
0.45500001 5.8200002 -1.7460001 0.30000001
0.43700001 5.8309999 -1.749 0.31999999
0.41999999 5.8379998 -1.751 0.31
0.40099999 5.8369999 -1.751 0.31
0.38299999 5.8379998 -1.751 0.31999999
0.373 5.8369999 -1.75 0.31
0.35499999 5.842 -1.751 0.31
0.338 5.8540001 -1.755 0.36000001
0.31900001 5.8520002 -1.7539999 0.31999999
0.301 5.8639998 -1.757 0.33000001
0.28200001 5.8400002 -1.749 0.20999999
0.264 5.8520002 -1.753 0.31
0.255 5.8660002 -1.757 0.25
0.236 5.8590002 -1.755 0.47999999
0.21799999 5.8600001 -1.755 0.28999999
0.2 5.8649998 -1.756 0.41999999
0.18099999 5.8579998 -1.7539999 0.44999999
0.163 5.8660002 -1.756 0.28999999
0.14399999 5.8660002 -1.756 0.52999997
0.13500001 5.8639998 -1.756 0.38999999
0.117 5.8730001 -1.758 0.31999999
0.098999999 5.8769999 -1.7589999 0.31
0.079999998 5.8730001 -1.758 0.31999999
0.061999999 5.868 -1.756 0.30000001
0.043000001 5.8720002 -1.757 0.31
0.025 5.881 -1.76 0.31999999
0.016000001 5.8769999 -1.7589999 0.31999999
-0.003 5.8909998 -1.763 0.33000001
-0.021 5.881 -1.76 0.28999999
-0.039999999 5.8870001 -1.762 0.34999999
-0.057999998 5.8790002 -1.76 0.28999999
-0.077 5.8850002 -1.762 0.34
-0.094999999 5.8940001 -1.765 0.31999999
-0.105 5.8990002 -1.767 0.31999999
-0.123 5.8899999 -1.763 0.30000001
-0.142 5.9099998 -1.77 0.34
-0.161 5.908 -1.77 0.28999999
-0.17900001 5.9029999 -1.768 0.27000001
-0.197 5.8990002 -1.767 0.34
-0.21600001 5.9120002 -1.771 0.27000001
-0.226 5.9229999 -1.775 0.25
-0.245 5.9260001 -1.776 0.30000001
-0.264 5.9499998 -1.784 0.28999999
-0.28299999 5.9450002 -1.783 0.27000001
-0.30199999 5.9400001 -1.7819999 0.31999999
-0.32100001 5.9530001 -1.786 0.25
-0.34099999 5.9710002 -1.7920001 0.27000001
-0.359 5.9679999 -1.791 0.28
-0.368 5.954 -1.7869999 0.22
-0.38800001 5.9829998 -1.7970001 0.16
-0.40700001 5.9720001 -1.794 0.19
-0.426 5.9819999 -1.798 0.25
-0.43599999 5.848 -1.755 0
-0.46399999 5.9809999 -1.798 0
-0.48100001 5.9569998 -1.791 0.059999999
-0.493 5.994 -1.803 0.079999998
-0.51899999 6.0760002 -1.83 0.25999999
-0.53899997 6.0840001 -1.8329999 0.33000001
-0.54900002 5.9840002 -1.801 0.16
-0.56800002 5.98 -1.801 0.25
-0.58600003 5.973 -1.799 0.2
-0.60699999 5.994 -1.806 0.31999999
-0.61000001 5.9320002 -1.7869999 0.28
-0.62900001 5.928 -1.786 0.28999999
-0.64700001 5.9219999 -1.785 0.28999999
-0.66500002 5.9130001 -1.7819999 0.30000001
-0.68300003 5.9029999 -1.78 0.28999999
-0.70200002 5.9050002 -1.781 0.30000001
-0.71700001 5.8759999 -1.773 0.30000001
-0.72600001 5.869 -1.771 0.30000001
-0.745 5.8740001 -1.773 0.34999999
-0.76200002 5.862 -1.77 0.30000001
-0.77999997 5.8579998 -1.77 0.31999999
-0.79900002 5.8579998 -1.77 0.31999999
-0.81800002 5.8569999 -1.771 0.36000001
-0.83499998 5.8509998 -1.77 0.34
-0.84500003 5.849 -1.77 0.34
-0.86299998 5.848 -1.77 0.36000001
-0.88300002 5.8530002 -1.773 0.34
-0.90200001 5.8559999 -1.774 0.41999999
-0.92000002 5.848 -1.773 0.30000001
-0.93800002 5.8449998 -1.773 0.43000001
-0.95899999 5.8590002 -1.778 0.34
-0.96700001 5.848 -1.775 0.41
-0.98500001 5.8460002 -1.776 0.31999999
-1.005 5.8509998 -1.778 0.37
-1.021 5.835 -1.774 0.38
-1.041 5.8429999 -1.777 0.41
-1.0599999 5.8429999 -1.779 0.44
-1.081 5.8509998 -1.7819999 0.25
-1.096 5.8309999 -1.777 0.60000002
-1.1059999 5.8309999 -1.777 0.38999999
-1.123 5.8239999 -1.776 0.31999999
-1.143 5.8270001 -1.779 0.31999999
-1.1619999 5.8280001 -1.78 0.34
-1.181 5.8260002 -1.781 0.31
-1.2 5.8260002 -1.7819999 0.31
-1.2180001 5.8200002 -1.781 0.31999999
-1.227 5.8179998 -1.781 0.33000001
-1.245 5.8119998 -1.781 0.28999999
-1.2640001 5.8119998 -1.7819999 0.34
-1.281 5.803 -1.78 0.31999999
-1.3 5.8039999 -1.7819999 0.31
-1.318 5.7979999 -1.781 0.22
-1.34 5.8109999 -1.7869999 0.27000001
-1.349 5.809 -1.7869999 0.46000001
-1.369 5.8099999 -1.788 0.44
-1.3839999 5.7940001 -1.785 0.44
-1.405 5.7989998 -1.788 0.37
-1.423 5.7950001 -1.788 0.38
-1.436 5.7719998 -1.7819999 0.44999999
-1.4579999 5.7800002 -1.786 0.34
-1.47 5.789 -1.79 0.44999999
-1.4859999 5.7750001 -1.7869999 0.38
-1.502 5.7649999 -1.785 0.41999999
-1.522 5.7680001 -1.7869999 0.41
-1.5369999 5.7519999 -1.784 0.38999999
-1.557 5.7519999 -1.785 0.41
-1.579 5.7600002 -1.79 0.33000001
-1.5930001 5.7410002 -1.785 0.44999999
-1.602 5.7379999 -1.785 0.44999999
-1.623 5.744 -1.788 0.34999999
-1.638 5.73 -1.785 0.44
-1.658 5.73 -1.7869999 0.38
-1.675 5.723 -1.7869999 0.34
-1.6900001 5.7090001 -1.784 0.44
-1.711 5.7119999 -1.7869999 0.33000001
-1.723 5.7210002 -1.79 0.37
-1.74 5.7119999 -1.789 0.38
-1.755 5.697 -1.786 0.28999999
-1.7819999 5.7210002 -1.796 0.36000001
-1.7970001 5.7059999 -1.793 0.36000001
-1.819 5.7129998 -1.7970001 0.13
-1.839 5.7140002 -1.799 0.039999999
-1.851 5.7210002 -1.802 0.14
-1.9069999 5.8330002 -1.842 0.30000001
-1.921 5.8140001 -1.8380001 0.28999999
-1.915 5.7340002 -1.813 0
-1.92 5.6880002 -1.799 0
-1.944 5.6999998 -1.8049999 0
-1.977 5.7090001 -1.812 0.23999999
-1.9910001 5.6919999 -1.808 0.25999999
-2.0039999 5.671 -1.803 0.059999999
-2.013 5.6389999 -1.795 0.16
-2.0420001 5.664 -1.8049999 0.23
-2.0439999 5.6139998 -1.79 0.25999999
-2.0610001 5.6059999 -1.79 0.30000001
-2.082 5.6100001 -1.793 0.34999999
-2.085 5.5890002 -1.7869999 0.28
-2.1010001 5.579 -1.786 0.31999999
-2.1259999 5.5939999 -1.793 0.37
-2.135 5.5640001 -1.785 0.27000001
-2.154 5.5609999 -1.7869999 0.36000001
-2.178 5.572 -1.793 0.34999999
-2.1900001 5.5500002 -1.788 0.34999999
-2.197 5.5419998 -1.786 0.31
-2.2149999 5.5370002 -1.7869999 0.31999999
-2.2290001 5.5209999 -1.784 0.31999999
-2.25 5.5229998 -1.7869999 0.31999999
-2.2679999 5.5170002 -1.7869999 0.31999999
-2.283 5.5050001 -1.785 0.31999999
-2.3 5.4980001 -1.785 0.34
-2.3080001 5.4920001 -1.785 0.31999999
-2.3239999 5.4809999 -1.784 0.34999999
-2.3369999 5.4650002 -1.781 0.25
-2.3629999 5.4770002 -1.7869999 0.34999999
-2.365 5.4349999 -1.775 0.31999999
-2.3870001 5.4400001 -1.779 0.31
-2.4070001 5.4390001 -1.7819999 0.31999999
-2.4100001 5.421 -1.777 0.30000001
-2.427 5.414 -1.777 0.31999999
-2.4460001 5.4109998 -1.779 0.34999999
-2.4549999 5.3860002 -1.773 0.28
-2.474 5.382 -1.774 0.38999999
-2.4879999 5.3670001 -1.771 0.34999999
-2.5050001 5.3610001 -1.772 0.34
-2.506 5.3400002 -1.766 0.31
-2.5150001 5.316 -1.76 0.36000001
-2.5220001 5.2880001 -1.753 0.34
-2.5339999 5.2690001 -1.749 0.27000001
-2.556 5.2740002 -1.7539999 0.36000001
-2.5639999 5.2480001 -1.748 0.33000001
-2.5810001 5.2399998 -1.748 0.31
-2.592 5.243 -1.75 0.31999999
-2.605 5.2259998 -1.747 0.31999999
-2.618 5.211 -1.745 0.31999999
-2.6370001 5.2080002 -1.7460001 0.34
-2.651 5.1960001 -1.745 0.34
-2.674 5.1999998 -1.749 0.28999999
-2.6900001 5.1919999 -1.749 0.31999999
-2.7079999 5.1859999 -1.751 0.34
-2.71 5.1700001 -1.7460001 0.30000001
-2.7360001 5.1799998 -1.753 0.33000001
-2.7479999 5.1630001 -1.75 0.28
-2.7720001 5.1700001 -1.756 0.34999999
-2.7820001 5.1490002 -1.751 0.28999999
-2.7980001 5.1409998 -1.751 0.34
-2.8199999 5.1420002 -1.755 0.31999999
-2.823 5.1290002 -1.752 0.28
-2.839 5.1199999 -1.752 0.30000001
-2.8670001 5.1329999 -1.76 0.34999999
-2.878 5.1139998 -1.756 0.30000001
-2.8889999 5.0960002 -1.753 0.31999999
-2.9100001 5.0960002 -1.756 0.31999999
-2.927 5.0879998 -1.757 0.31999999
-2.934 5.0819998 -1.756 0.33000001
-2.9560001 5.0830002 -1.76 0.34
-2.9679999 5.0669999 -1.757 0.30000001
-2.984 5.0570002 -1.757 0.34
-3.003 5.0539999 -1.76 0.30000001
-3.0179999 5.0430002 -1.7589999 0.31999999
-3.033 5.0320001 -1.7589999 0.31
-3.0420001 5.0289998 -1.7589999 0.31
-3.059 5.0209999 -1.76 0.33000001
-3.0710001 5.0050001 -1.757 0.31999999
-3.089 5 -1.7589999 0.28999999
-3.1110001 5 -1.763 0.33000001
-3.122 4.9819999 -1.76 0.30000001
-3.1400001 4.9770002 -1.762 0.34
-3.1489999 4.974 -1.762 0.31
-3.1689999 4.9699998 -1.765 0.30000001
-3.177 4.9489999 -1.76 0.28
-3.1960001 4.9439998 -1.762 0.31999999
-3.211 4.934 -1.762 0.31
-3.2279999 4.9250002 -1.763 0.31999999
-3.253 4.9299998 -1.768 0.34
-3.2650001 4.915 -1.767 0.31999999
-3.27 4.9050002 -1.765 0.30000001
-3.29 4.902 -1.768 0.34
-3.296 4.8779998 -1.762 0.28
-3.319 4.8779998 -1.767 0.30000001
-3.339 4.8759999 -1.77 0.33000001
-3.355 4.8649998 -1.77 0.31
-3.3629999 4.8439999 -1.765 0.28999999
-3.3789999 4.8509998 -1.77 0.34
-3.3840001 4.8260002 -1.765 0.28999999
-3.4059999 4.8249998 -1.768 0.33000001
-3.4230001 4.8169999 -1.77 0.31
-3.427 4.7909999 -1.763 0.23
-3.45 4.7909999 -1.768 0.36000001
-3.464 4.7789998 -1.767 0.30000001
-3.48 4.7859998 -1.772 0.34999999
-3.4920001 4.77 -1.77 0.31999999
-3.5090001 4.7620001 -1.771 0.31
-3.5239999 4.7509999 -1.771 0.31999999
-3.539 4.7399998 -1.771 0.28999999
-3.553 4.7270002 -1.771 0.31
-3.573 4.724 -1.774 0.34
-3.582 4.7199998 -1.774 0.28999999
-3.6040001 4.7179999 -1.778 0.31
-3.612 4.697 -1.774 0.25999999
-3.6370001 4.6989999 -1.78 0.34
-3.6470001 4.6820002 -1.777 0.31
-3.6589999 4.6669998 -1.776 0.30000001
-3.6760001 4.6589999 -1.777 0.30000001
-3.6849999 4.6550002 -1.778 0.31
-3.698 4.6420002 -1.777 0.28999999
-3.7219999 4.6420002 -1.7819999 0.34
-3.73 4.6209998 -1.779 0.31
-3.7460001 4.612 -1.78 0.31999999
-3.766 4.6069999 -1.7819999 0.31999999
-3.7809999 4.5960002 -1.783 0.33000001
-3.7969999 4.586 -1.784 0.31999999
-3.7969999 4.5710001 -1.78 0.28999999
-3.813 4.5599999 -1.781 0.30000001
-3.826 4.5469999 -1.78 0.31
-3.8440001 4.539 -1.7819999 0.31999999
-3.868 4.539 -1.7869999 0.34
-3.243 3.7750001 -1.471 0.23999999
-3.2360001 3.743 -1.462 0.28999999
-3.233 3.7279999 -1.4579999 0.31
-3.2420001 3.7149999 -1.456 0.34
-3.2539999 3.704 -1.456 0.37
-3.2639999 3.6930001 -1.456 0.38
-3.28 3.687 -1.4579999 0.36000001
-3.286 3.671 -1.455 0.38
-3.3069999 3.6700001 -1.46 0.34
-3.3299999 3.6849999 -1.4680001 0.43000001
-3.352 3.6860001 -1.473 0.27000001
-4.02 4.4000001 -1.785 0.28999999
-4.0240002 4.3769999 -1.781 0.28999999
-4.0430002 4.3699999 -1.784 0.34
-4.0650001 4.3660002 -1.7869999 0.30000001
-4.073 4.3470001 -1.785 0.30000001
-4.079 4.3400002 -1.784 0.30000001
-4.0910001 4.3249998 -1.784 0.30000001
-4.1100001 4.3179998 -1.786 0.33000001
-4.1170001 4.2979999 -1.783 0.31999999
-4.1360002 4.2909999 -1.785 0.28999999
-4.145 4.2740002 -1.784 0.34
-4.1570001 4.2589998 -1.783 0.30000001
-4.165 4.2410002 -1.781 0.28999999
-4.1729999 4.2360001 -1.781 0.33000001
-4.1849999 4.2210002 -1.781 0.31
-4.2059999 4.2160001 -1.784 0.30000001
-4.2119999 4.1950002 -1.781 0.33000001
-4.2270002 4.184 -1.7819999 0.31999999
-4.2490001 4.1789999 -1.785 0.31999999
-4.244 4.1479998 -1.777 0.28999999
-4.2639999 4.1550002 -1.784 0.33000001
-4.2709999 4.1350002 -1.781 0.31999999
-4.2750001 4.1129999 -1.777 0.30000001
-4.3060002 4.1170001 -1.785 0.30000001
-4.3109999 4.0960002 -1.781 0.31999999
-4.3119998 4.072 -1.776 0.31999999
-4.3390002 4.0710001 -1.7819999 0.31999999
-4.3400002 4.059 -1.78 0.31
-4.348 4.0409999 -1.778 0.30000001
-4.3670001 4.033 -1.781 0.31
-4.3779998 4.0180001 -1.78 0.31999999
-4.3779998 3.993 -1.774 0.27000001
-4.402 3.9890001 -1.779 0.33000001
-4.4229999 3.983 -1.783 0.33000001
-4.4219999 3.97 -1.78 0.31
-4.4330001 3.954 -1.779 0.31999999
-4.4380002 3.934 -1.776 0.28999999
-4.4530001 3.9230001 -1.777 0.33000001
-4.4759998 3.9170001 -1.7819999 0.30000001
-4.4790001 3.8959999 -1.778 0.31999999
-4.5019999 3.8900001 -1.7819999 0.31999999
-4.493 3.8710001 -1.776 0.27000001
-4.52 3.869 -1.7819999 0.33000001
-4.5289998 3.8529999 -1.781 0.31
-4.546 3.842 -1.783 0.30000001
-4.5580001 3.8280001 -1.783 0.30000001
-4.5640001 3.8080001 -1.781 0.28999999
-4.5830002 3.8 -1.784 0.31
-4.6069999 3.796 -1.788 0.31
-4.6009998 3.779 -1.784 0.31999999
-4.619 3.7690001 -1.786 0.31
-4.638 3.76 -1.789 0.31999999
-3.675 2.954 -1.388 0.18000001
-3.677 2.9360001 -1.385 0.28999999
-3.688 2.9260001 -1.385 0.41
-3.6440001 2.872 -1.363 0.07
-3.6900001 2.8989999 -1.38 0.11
-4.7010002 3.6789999 -1.788 0.31999999
-4.7080002 3.6600001 -1.7869999 0.30000001
-4.7270002 3.651 -1.79 0.28
-4.7410002 3.6389999 -1.791 0.34
-4.7540002 3.625 -1.791 0.31999999
-4.77 3.6140001 -1.793 0.31999999
-4.7729998 3.6040001 -1.7920001 0.31999999
-4.7919998 3.5940001 -1.795 0.28999999
-4.8119998 3.586 -1.799 0.30000001
-4.8280001 3.575 -1.801 0.31999999
-4.8309999 3.5539999 -1.798 0.25
-4.8499999 3.5439999 -1.801 0.34999999
-4.8579998 3.527 -1.799 0.30000001
-4.8670001 3.5209999 -1.801 0.34
-4.8779998 3.506 -1.801 0.31999999
-4.8889999 3.4909999 -1.801 0.31999999
-4.9029999 3.477 -1.802 0.31
-4.9169998 3.464 -1.803 0.31
-4.9429998 3.46 -1.809 0.34
-4.954 3.444 -1.809 0.31999999
-4.9559999 3.434 -1.808 0.30000001
-5.0300002 3.4619999 -1.832 0.30000001
-5.0879998 3.4790001 -1.851 0.34
-5.1030002 3.4660001 -1.852 0.33000001
-5.1170001 3.4519999 -1.854 0.31999999
-5.138 3.4419999 -1.857 0.31
-5.1370001 3.4189999 -1.853 0.28999999
-5.1570001 3.4089999 -1.857 0.36000001
-5.1609998 3.4000001 -1.8559999 0.31999999
-5.1849999 3.392 -1.8609999 0.34
-5.184 3.368 -1.857 0.28
-5.1929998 3.3510001 -1.8559999 0.27000001
-5.204 3.335 -1.8559999 0.34999999
-5.198 3.3080001 -1.85 0.30000001
-5.2069998 3.2909999 -1.849 0.30000001
-5.2049999 3.2780001 -1.847 0.28999999
-5.2090001 3.2579999 -1.844 0.28999999
-5.2179999 3.2409999 -1.844 0.28
-5.2309999 3.2260001 -1.845 0.27000001
-5.2399998 3.2090001 -1.844 0.25999999
-5.25 3.1919999 -1.844 0.27000001
-5.2610002 3.177 -1.845 0.25999999
-5.2550001 3.1619999 -1.841 0.16
-5.2750001 3.151 -1.844 0.28
-5.2859998 3.135 -1.845 0.22
-5.2800002 3.109 -1.839 0.18000001
-5.3070002 3.1029999 -1.846 0.28999999
-5.3119998 3.0829999 -1.844 0.25
-5.3169999 3.0639999 -1.842 0.20999999
-5.3330002 3.062 -1.846 0.25
-5.3330002 3.04 -1.8430001 0.25
-5.3520002 3.029 -1.846 0.27000001
-5.355 3.0079999 -1.844 0.23999999
-5.3509998 2.984 -1.839 0.17
-5.3720002 2.973 -1.8430001 0.28999999
-5.3829999 2.957 -1.844 0.25
-5.3800001 2.944 -1.841 0.16
-5.3889999 2.927 -1.841 0.28999999
-5.3979998 2.9100001 -1.841 0.23999999
-5.4060001 2.8929999 -1.84 0.2
-5.4250002 2.881 -1.844 0.27000001
-5.4169998 2.855 -1.8380001 0.19
-5.4429998 2.8469999 -1.844 0.23999999
-5.4369998 2.8329999 -1.84 0.23
-5.4460001 2.816 -1.84 0.25
-5.4510002 2.7969999 -1.839 0.2
-5.474 2.7869999 -1.844 0.28
-5.4640002 2.76 -1.837 0.25
-5.467 2.74 -1.835 0.2
-5.4949999 2.733 -1.842 0.27000001
-5.487 2.7179999 -1.8380001 0.23
-5.5019999 2.704 -1.84 0.23
-5.5209999 2.6919999 -1.844 0.25
-5.5139999 2.6670001 -1.8380001 0.23999999
-5.526 2.651 -1.84 0.18000001
-5.5430002 2.638 -1.8430001 0.27000001
-5.5419998 2.6170001 -1.84 0.25
-5.5609999 2.6040001 -1.8430001 0.23
-5.5630002 2.5940001 -1.8430001 0.13
-5.5679998 2.575 -1.841 0.20999999
-5.573 2.556 -1.84 0.20999999
-5.5939999 2.5450001 -1.845 0.23999999
-5.5970001 2.5250001 -1.8430001 0.23
-5.6020002 2.506 -1.842 0.25999999
-5.6160002 2.4909999 -1.844 0.27000001
-5.6059999 2.4760001 -1.84 0.27000001
-5.619 2.461 -1.841 0.25999999
-5.6269999 2.4430001 -1.841 0.27000001
-5.6399999 2.428 -1.8430001 0.27000001
-5.6479998 2.4100001 -1.8430001 0.20999999
-5.6589999 2.3940001 -1.844 0.23
-5.6919999 2.398 -1.855 0
-5.7140002 2.3859999 -1.86 0
-5.8889999 1.739 -1.8430001 0.039999999
-5.9130001 1.726 -1.849 0.15000001
-5.902 1.7029999 -1.844 0.16
-5.9229999 1.689 -1.849 0.23
-5.9200001 1.668 -1.846 0.23999999
-5.9039998 1.653 -1.84 0.17
-5.9530001 1.647 -1.855 0.28
-5.9380002 1.623 -1.848 0.23
-5.9359999 1.602 -1.846 0.19
-5.9720001 1.592 -1.8559999 0.25999999
-5.9619999 1.569 -1.851 0.25
-5.974 1.552 -1.854 0.2
-5.9879999 1.546 -1.857 0.25
-5.9780002 1.523 -1.852 0.2
-5.994 1.507 -1.8559999 0.25
-6 1.489 -1.857 0.23
-6.0029998 1.469 -1.8559999 0.2
-6.0209999 1.454 -1.86 0.23999999
-6.007 1.4299999 -1.854 0.19
-6.0170002 1.413 -1.8559999 0.23
-6.0250001 1.405 -1.858 0.2
-6.0359998 1.387 -1.86 0.23
-6.039 1.368 -1.86 0.22
-6.0450001 1.349 -1.86 0.12
-6.0419998 1.329 -1.858 0.20999999
-6.0440001 1.309 -1.857 0.18000001
-6.0700002 1.295 -1.865 0.25999999
-6.0560002 1.2819999 -1.859 0.18000001
-6.0689998 1.265 -1.862 0.23999999
-6.0710001 1.2460001 -1.862 0.2
-6.073 1.226 -1.8609999 0.25
-6.0770001 1.207 -1.8609999 0.2
-6.0830002 1.188 -1.862 0.11
-6.0770001 1.1670001 -1.858 0.17
-6.086 1.159 -1.8609999 0.20999999
-6.0799999 1.138 -1.858 0.16
-6.0929999 1.1210001 -1.8609999 0.23
-6.0890002 1.1 -1.858 0.23
-6.0929999 1.081 -1.858 0.18000001
-6.1090002 1.0650001 -1.863 0.27000001
-6.0960002 1.0420001 -1.857 0.23999999
-6.1069999 1.034 -1.86 0.2
-6.1100001 1.015 -1.86 0.23
-6.1110001 0.99599999 -1.86 0.22
-6.1110001 0.97600001 -1.858 0.18000001
-6.125 0.95899999 -1.862 0.25999999
-6.1129999 0.93699998 -1.857 0.19
-6.125 0.91900003 -1.86 0.25
-6.132 0.91000003 -1.862 0.23
-6.1409998 0.89200002 -1.864 0.2
-6.1430001 0.87300003 -1.864 0.25
-6.1420002 0.85299999 -1.863 0.19
-6.1490002 0.83399999 -1.864 0.13
-6.1440001 0.81400001 -1.862 0.2
-6.1560001 0.796 -1.865 0.11
-6.1479998 0.78500003 -1.862 0.20999999
-6.1560001 0.76599997 -1.863 0.2
-6.1659999 0.74800003 -1.8660001 0.25
-6.138 0.72500002 -1.8559999 0.22
-6.165 0.708 -1.864 0.2
-6.1609998 0.68800002 -1.862 0.25
-6.1560001 0.66799998 -1.86 0.22
-6.171 0.64999998 -1.864 0.2
-6.1830001 0.64200002 -1.868 0.25
-6.165 0.62 -1.8609999 0.23
-6.1760001 0.602 -1.864 0.18000001
-6.191 0.58399999 -1.868 0.27000001
-6.1659999 0.56199998 -1.86 0.23
-6.1849999 0.54400003 -1.865 0.20999999
-6.198 0.52499998 -1.869 0.13
-6.1760001 0.514 -1.862 0.20999999
-6.191 0.495 -1.8660001 0.2
-6.2080002 0.477 -1.8710001 0.23999999
-6.2020001 0.45699999 -1.868 0.22
-6.211 0.43799999 -1.8710001 0.23
-6.197 0.41800001 -1.8660001 0.20999999
-6.1900001 0.398 -1.863 0.20999999
-6.223 0.38999999 -1.874 0.23999999
-6.211 0.37 -1.869 0.22
-6.2030001 0.34999999 -1.8660001 0.2
-6.2210002 0.331 -1.872 0.23999999
-6.2259998 0.31200001 -1.873 0.2
-6.2249999 0.292 -1.872 0.12
-6.2090001 0.27200001 -1.867 0.19
-6.224 0.26300001 -1.872 0.19
-6.2160001 0.243 -1.869 0.18000001
-6.2259998 0.223 -1.872 0.23
-6.2249999 0.204 -1.8710001 0.2
-6.2290001 0.184 -1.872 0.12
-6.224 0.16500001 -1.8710001 0.2
-6.23 0.145 -1.872 0.11
-6.217 0.13500001 -1.868 0.2
-6.2350001 0.116 -1.874 0.11
-6.2350001 0.096000001 -1.874 0.18000001
-6.2350001 0.077 -1.874 0.12
-6.2319999 0.057 -1.872 0.19
-6.2280002 0.037999999 -1.8710001 0.11
-6.2389998 0.017999999 -1.875 0.18000001
-6.2379999 -0.0020000001 -1.874 0.12
-6.243 -0.011 -1.876 0.18000001
-6.2360001 -0.030999999 -1.874 0.12
-6.237 -0.050999999 -1.874 0.18000001
-6.2350001 -0.07 -1.874 0.12
-6.2249999 -0.090000004 -1.8710001 0.20999999
-6.2329998 -0.109 -1.873 0.11
-6.2360001 -0.12899999 -1.874 0.2
-6.2340002 -0.139 -1.874 0.11
-6.2280002 -0.15800001 -1.872 0.18000001
-6.2329998 -0.178 -1.874 0.20999999
-6.2340002 -0.197 -1.874 0.2
-6.2319999 -0.21699999 -1.874 0.12
-6.224 -0.236 -1.8710001 0.20999999
-6.2270002 -0.25600001 -1.872 0.11
-6.2189999 -0.26499999 -1.87 0.20999999
-6.2010002 -0.28400001 -1.865 0.17
-6.224 -0.30500001 -1.872 0.25999999
-6.2329998 -0.32499999 -1.876 0.2
-6.217 -0.34400001 -1.8710001 0.12
-6.2080002 -0.36300001 -1.868 0.2
-6.2010002 -0.382 -1.8660001 0.17
-6.2189999 -0.39300001 -1.872 0.25999999
-6.2309999 -0.41299999 -1.877 0.2
-6.2189999 -0.43200001 -1.873 0.23
-6.2020001 -0.45100001 -1.868 0.18000001
-6.197 -0.47 -1.867 0.23
-6.1929998 -0.48899999 -1.8660001 0.19
-6.2119999 -0.5 -1.872 0.22
-6.21 -0.51999998 -1.872 0.2
-6.21 -0.53899997 -1.873 0.25
-6.2010002 -0.55800003 -1.8710001 0.23
-6.1999998 -0.56800002 -1.8710001 0.2
-6.1999998 -0.588 -1.8710001 0.25
-6.2080002 -0.60799998 -1.874 0.18000001
-6.198 -0.62699997 -1.872 0.23
-6.1929998 -0.64600003 -1.8710001 0.18000001
-6.1900001 -0.66500002 -1.8710001 0.25
-6.1830001 -0.68400002 -1.869 0.23
-6.1750002 -0.70300001 -1.867 0.19
-6.191 -0.71499997 -1.872 0.28
-6.1830001 -0.73299998 -1.8710001 0.23
-6.1609998 -0.75099999 -1.865 0.18000001
-6.1820002 -0.773 -1.872 0.27000001
-6.177 -0.792 -1.8710001 0.23
-6.1560001 -0.80900002 -1.865 0.18000001
-6.1719999 -0.83099997 -1.8710001 0.27000001
-6.1599998 -0.83899999 -1.868 0.22
-6.151 -0.85699999 -1.8660001 0.18000001
-6.1659999 -0.87900001 -1.8710001 0.27000001
-6.1589999 -0.898 -1.87 0.25
-6.1370001 -0.91500002 -1.864 0.19
-6.1529999 -0.93699998 -1.87 0.27000001
-6.1479998 -0.95599997 -1.869 0.23
-6.1409998 -0.96399999 -1.868 0.16
-6.1529999 -0.986 -1.872 0.28
-6.1279998 -1.002 -1.865 0.25
-6.1389999 -1.023 -1.87 0.23999999
-6.1230001 -1.041 -1.8660001 0.19
-6.1370001 -1.063 -1.8710001 0.28
-6.1279998 -1.081 -1.869 0.25
-6.1220002 -1.09 -1.868 0.25999999
-6.1300001 -1.1109999 -1.872 0.25
-6.098 -1.125 -1.863 0.19
-6.1230001 -1.15 -1.872 0.28999999
-6.1170001 -1.169 -1.8710001 0.23
-6.1040001 -1.186 -1.868 0.27000001
-6.112 -1.207 -1.872 0.27000001
-6.1020002 -1.215 -1.869 0.28
-6.099 -1.235 -1.869 0.27000001
-6.1040001 -1.256 -1.872 0.25999999
-6.085 -1.272 -1.868 0.19
-6.092 -1.293 -1.8710001 0.28999999
-6.079 -1.3099999 -1.868 0.25
-6.0840001 -1.331 -1.8710001 0.25999999
-6.0799999 -1.341 -1.8710001 0.28999999
-6.0739999 -1.359 -1.87 0.27000001
-6.072 -1.3789999 -1.8710001 0.27000001
-6.073 -1.399 -1.872 0.27000001
-6.0650001 -1.4170001 -1.8710001 0.28999999
-6.0599999 -1.436 -1.8710001 0.28
-6.052 -1.455 -1.87 0.28999999
-6.0580001 -1.476 -1.874 0.27000001
-6.0710001 -1.489 -1.8789999 0.28999999
-6.0510001 -1.505 -1.874 0.27000001
-6.0539999 -1.526 -1.876 0.28
-6.0510001 -1.545 -1.877 0.27000001
-6.0370002 -1.562 -1.874 0.28
-6.0370002 -1.582 -1.876 0.27000001
-6.04 -1.603 -1.878 0.28999999
-6.006 -1.604 -1.868 0.28999999
-6.0079999 -1.625 -1.87 0.28999999
-6.007 -1.645 -1.8710001 0.25999999
-6.0050001 -1.665 -1.872 0
-6.0170002 -1.688 -1.878 0
-5.7849998 -2.2820001 -1.868 0.02
-5.7969999 -2.3069999 -1.875 0.12
-5.776 -2.3199999 -1.87 0.23
-5.7649999 -2.326 -1.868 0.22
-5.756 -2.3440001 -1.867 0.25
-5.7550001 -2.365 -1.869 0.28999999
-5.7550001 -2.3859999 -1.872 0.27000001
-5.7410002 -2.401 -1.869 0.31
-5.7379999 -2.421 -1.8710001 0.27000001
-5.71 -2.4300001 -1.864 0.28999999
-5.7249999 -2.4579999 -1.872 0.25999999
-5.7160001 -2.464 -1.87 0.28
-5.711 -2.484 -1.8710001 0.28
-5.691 -2.4960001 -1.867 0.30000001
-5.6890001 -2.517 -1.869 0.28999999
-5.6810002 -2.5339999 -1.869 0.25999999
-5.6729999 -2.552 -1.869 0.28999999
-5.6659999 -2.5710001 -1.869 0.27000001
-5.6589999 -2.5780001 -1.868 0.28999999
-5.6399999 -2.5910001 -1.865 0.28999999
-5.6370001 -2.6110001 -1.8660001 0.28999999
-5.6259999 -2.6270001 -1.865 0.28999999
-5.6240001 -2.648 -1.868 0.25999999
-5.612 -2.664 -1.8660001 0.31
-5.599 -2.6800001 -1.865 0.28999999
-5.5999999 -2.691 -1.8660001 0.30000001
-5.5879998 -2.707 -1.865 0.28999999
-5.586 -2.7279999 -1.868 0.28999999
-5.566 -2.7390001 -1.863 0.31
-5.5599999 -2.7579999 -1.865 0.28999999
-5.5599999 -2.78 -1.868 0.28999999
-5.546 -2.7950001 -1.8660001 0.28999999
-5.54 -2.803 -1.865 0.30000001
-5.5250001 -2.8169999 -1.863 0.28999999
-5.5209999 -2.8369999 -1.865 0.27000001
-5.5100002 -2.8529999 -1.864 0.28999999
-5.5009999 -2.8710001 -1.864 0.28999999
-5.487 -2.885 -1.862 0.28999999
-5.4749999 -2.901 -1.8609999 0.28999999
-5.473 -2.911 -1.862 0.30000001
-5.454 -2.9230001 -1.858 0.30000001
-5.4549999 -2.9449999 -1.862 0.28
-5.441 -2.96 -1.86 0.28999999
-5.4310002 -2.977 -1.86 0.28
-5.4239998 -2.9949999 -1.8609999 0.28
-5.4130001 -3.0109999 -1.86 0.28999999
-5.408 -3.0190001 -1.86 0.28999999
-5.3899999 -3.0320001 -1.857 0.28
-5.3860002 -3.0510001 -1.859 0.31999999
-5.381 -3.0710001 -1.8609999 0.28
-5.3579998 -3.0799999 -1.8559999 0.30000001
-5.3520002 -3.099 -1.857 0.25
-5.3400002 -3.115 -1.857 0.28999999
-5.342 -3.1389999 -1.8609999 0.28999999
-5.3340001 -3.145 -1.86 0.30000001
-5.322 -3.161 -1.859 0.28
-5.309 -3.1760001 -1.858 0.28999999
-5.296 -3.1900001 -1.857 0.30000001
-5.2870002 -3.2079999 -1.857 0.28
-5.2740002 -3.2219999 -1.8559999 0.30000001
-5.2600002 -3.237 -1.855 0.27000001
-5.25 -3.2420001 -1.853 0.28999999
-5.2480001 -3.2639999 -1.8559999 0.25
-5.2350001 -3.2780001 -1.855 0.27000001
-5.2259998 -3.296 -1.855 0.27000001
-5.211 -3.309 -1.854 0.28
-5.1939998 -3.3210001 -1.851 0.28999999
-5.1950002 -3.345 -1.855 0.30000001
-5.178 -3.346 -1.851 0.30000001
-5.1690001 -3.3629999 -1.852 0.28999999
-5.1680002 -3.385 -1.855 0.25999999
-5.151 -3.398 -1.853 0.28999999
-5.1329999 -3.408 -1.85 0.28
-5.125 -3.427 -1.851 0.31999999
-5.1020002 -3.434 -1.846 0.27000001
-5.1100001 -3.4519999 -1.852 0.25
-5.0949998 -3.4649999 -1.85 0.30000001
-5.0890002 -3.484 -1.852 0.27000001
-5.0700002 -3.494 -1.849 0.30000001
-5.0599999 -3.5109999 -1.849 0.28999999
-5.0479999 -3.526 -1.849 0.25999999
-5.0409999 -3.5450001 -1.851 0.25
-5.039 -3.5550001 -1.852 0.27000001
-5.0040002 -3.5550001 -1.8430001 0.18000001
-5.0100002 -3.5829999 -1.849 0.28999999
-4.9990001 -3.598 -1.849 0.25
-4.9809999 -3.6099999 -1.847 0.28999999
-4.9699998 -3.625 -1.847 0.27000001
-4.9489999 -3.6340001 -1.8430001 0.2
-4.9549999 -3.6500001 -1.848 0.28999999
-4.9260001 -3.6530001 -1.841 0.23999999
-4.921 -3.6730001 -1.8430001 0.27000001
-4.9200001 -3.6960001 -1.848 0.25999999
-4.8930001 -3.7 -1.841 0.19
-4.8969998 -3.727 -1.848 0.28
-4.868 -3.73 -1.841 0.25
-4.868 -3.7420001 -1.8430001 0.27000001
-4.855 -3.756 -1.8430001 0.25999999
-4.848 -3.7750001 -1.844 0.28
-4.8330002 -3.7880001 -1.8430001 0.28
-4.8280001 -3.809 -1.846 0.25999999
-4.8000002 -3.8110001 -1.84 0.18000001
-4.8060002 -3.8399999 -1.847 0.28999999
-4.7859998 -3.8369999 -1.841 0.25
-4.776 -3.8529999 -1.842 0.27000001
-4.7579999 -3.8640001 -1.84 0.28
-4.7470002 -3.8800001 -1.84 0.25999999
-4.7319999 -3.892 -1.839 0.2
-4.7259998 -3.9119999 -1.841 0.27000001
-4.7020001 -3.9170001 -1.837 0.23999999
-4.6820002 -3.9130001 -1.831 0.17
-4.6869998 -3.9430001 -1.8380001 0.28999999
-4.6630001 -3.948 -1.834 0.23999999
-4.6409998 -3.954 -1.829 0.18000001
-4.6370001 -3.9760001 -1.8329999 0.25999999
-4.6199999 -3.9860001 -1.831 0.2
-4.6100001 -4.0029998 -1.832 0.13
-4.5910001 -3.9990001 -1.827 0.2
-4.5809999 -4.0159998 -1.8279999 0.20999999
-4.5770001 -4.0380001 -1.832 0.25
-4.5500002 -4.04 -1.826 0.23
-4.5349998 -4.052 -1.824 0.18000001
-4.5310001 -4.0739999 -1.8279999 0.25999999
-4.5120001 -4.0830002 -1.826 0.23
-4.4920001 -4.0910001 -1.823 0.19
-4.5009999 -4.112 -1.829 0.27000001
-4.4770002 -4.1160002 -1.824 0.23
-4.4520001 -4.118 -1.819 0.18000001
-4.46 -4.151 -1.8279999 0.27000001
-4.4349999 -4.1550002 -1.823 0.23
-4.4130001 -4.1599998 -1.819 0.16
-4.4159999 -4.1890001 -1.826 0.28999999
-4.3940001 -4.1820002 -1.819 0.25
-4.3800001 -4.1939998 -1.819 0.20999999
-4.3800001 -4.2210002 -1.825 0.25999999
-4.342 -4.211 -1.814 0.23
-4.3410001 -4.237 -1.819 0.23
-4.316 -4.2379999 -1.814 0.18000001
-4.3070002 -4.256 -1.816 0.28
-4.2930002 -4.256 -1.813 0.25
-4.2810001 -4.2709999 -1.813 0.25999999
-4.2649999 -4.2820001 -1.812 0.23999999
-4.243 -4.2870002 -1.809 0.18000001
-4.2449999 -4.3150001 -1.8150001 0.30000001
-4.2119999 -4.309 -1.807 0.25
-4.2010002 -4.3249998 -1.808 0.27000001
-4.2030001 -4.3400002 -1.812 0.25
-4.1719999 -4.335 -1.804 0.25999999
-4.1570001 -4.3470001 -1.803 0.23
-4.1459999 -4.3629999 -1.804 0.19
-4.1350002 -4.3790002 -1.8049999 0.31
-4.1129999 -4.3829999 -1.802 0.25
-4.1020002 -4.3990002 -1.803 0.25999999
-4.0840001 -4.3940001 -1.798 0.25999999
-4.073 -4.4099998 -1.799 0.20999999
-4.0679998 -4.4330001 -1.804 0.27000001
-4.0349998 -4.4239998 -1.795 0.25
-4.0209999 -4.4369998 -1.795 0.25999999
-4.0100002 -4.4520001 -1.796 0.25999999
-3.984 -4.4520001 -1.79 0.25999999
-3.9820001 -4.4640002 -1.793 0.28999999
-3.967 -4.4749999 -1.7920001 0.28
-3.9449999 -4.4790001 -1.788 0.27000001
-3.9349999 -4.4959998 -1.79 0.28
-3.921 -4.5079999 -1.79 0.28
-3.9000001 -4.513 -1.7869999 0.30000001
-3.8959999 -4.5370002 -1.7920001 0.30000001
-3.875 -4.527 -1.785 0.31
-3.8540001 -4.5310001 -1.7819999 0.27000001
-3.842 -4.546 -1.783 0.28999999
-3.8340001 -4.5650001 -1.786 0.33000001
-3.8099999 -4.5650001 -1.781 0.28
-3.8050001 -4.5890002 -1.786 0.31999999
-3.7820001 -4.5910001 -1.7819999 0.28
-3.7679999 -4.5879998 -1.778 0.31
-3.753 -4.5999999 -1.778 0.31999999
-3.7360001 -4.6079998 -1.777 0.31
-3.717 -4.6139998 -1.774 0.33000001
-3.7049999 -4.6290002 -1.776 0.30000001
-3.687 -4.6360002 -1.774 0.28999999
-3.671 -4.6459999 -1.773 0.33000001
-3.664 -4.652 -1.773 0.28
-3.6370001 -4.6479998 -1.767 0.30000001
-3.632 -4.6719999 -1.772 0.33000001
-3.6129999 -4.677 -1.77 0.31999999
-3.596 -4.6849999 -1.768 0.30000001
-3.5769999 -4.6919999 -1.767 0.30000001
-3.5639999 -4.7049999 -1.767 0.31999999
-3.5580001 -4.7119999 -1.768 0.31999999
-3.54 -4.7199998 -1.767 0.34999999
-3.526 -4.7309999 -1.767 0.28999999
-3.5079999 -4.7389998 -1.765 0.36000001
-3.4909999 -4.7470002 -1.7640001 0.31999999
-3.473 -4.7540002 -1.762 0.27000001
-3.4579999 -4.7639999 -1.762 0.31999999
-3.4419999 -4.7740002 -1.762 0.31999999
-3.4349999 -4.7810001 -1.762 0.30000001
-3.4219999 -4.7930002 -1.763 0.34
-3.404 -4.8010001 -1.762 0.30000001
-3.3859999 -4.8070002 -1.76 0.30000001
-3.3729999 -4.8200002 -1.761 0.34
-3.3510001 -4.822 -1.757 0.31
-3.339 -4.8369999 -1.7589999 0.33000001
-3.3329999 -4.8439999 -1.76 0.31
-3.3150001 -4.8509998 -1.7589999 0.31
-3.2980001 -4.8579998 -1.757 0.31999999
-3.2809999 -4.8649998 -1.756 0.31999999
-3.2650001 -4.8759999 -1.756 0.30000001
-3.2479999 -4.8829999 -1.755 0.33000001
-3.2390001 -4.902 -1.7589999 0.36000001
-3.2249999 -4.8979998 -1.755 0.30000001
-3.2030001 -4.8979998 -1.751 0.31
-3.1889999 -4.9099998 -1.752 0.34
-3.175 -4.9229999 -1.753 0.33000001
-3.1589999 -4.9320002 -1.752 0.30000001
-3.145 -4.9450002 -1.7539999 0.34
-3.1329999 -4.9590001 -1.756 0.37
-3.1159999 -4.9499998 -1.75 0.28999999
-3.099 -4.9580002 -1.749 0.27000001
-3.0880001 -4.974 -1.752 0.34999999
-3.069 -4.9790001 -1.75 0.31999999
-3.0550001 -4.9920001 -1.751 0.31999999
-3.039 -5 -1.751 0.28
-3.02 -5.0040002 -1.749 0.36000001
-3.0120001 -5.0089998 -1.749 0.31999999
-2.9909999 -5.0089998 -1.745 0.31
-2.9820001 -5.0300002 -1.749 0.33000001
-2.9679999 -5.0419998 -1.751 0.34
-2.951 -5.0500002 -1.75 0.33000001
-2.928 -5.0479999 -1.7460001 0.34
-2.911 -5.0549998 -1.745 0.31999999
-2.905 -5.0609999 -1.7460001 0.31999999
-2.891 -5.0749998 -1.748 0.31
-2.869 -5.073 -1.743 0.31999999
-2.8529999 -5.0819998 -1.743 0.33000001
-2.836 -5.0890002 -1.743 0.30000001
-2.822 -5.1009998 -1.744 0.34
-2.803 -5.105 -1.742 0.31999999
-2.796 -5.1110001 -1.743 0.31
-2.777 -5.1149998 -1.7410001 0.31999999
-2.76 -5.1220002 -1.74 0.34
-2.743 -5.1290002 -1.74 0.31999999
-2.7290001 -5.1409998 -1.7410001 0.31
-2.7119999 -5.1479998 -1.74 0.31999999
-2.6960001 -5.158 -1.7410001 0.34
-2.6889999 -5.164 -1.742 0.31999999
-2.6700001 -5.1669998 -1.74 0.30000001
-2.6570001 -5.1810002 -1.742 0.33000001
-2.641 -5.191 -1.742 0.33000001
-2.619 -5.1869998 -1.738 0.34
-2.6070001 -5.204 -1.7410001 0.30000001
-2.5910001 -5.2140002 -1.742 0.34999999
-2.5810001 -5.2129998 -1.74 0.31999999
-2.5680001 -5.2280002 -1.742 0.34
-2.5510001 -5.2360001 -1.742 0.28999999
-2.53 -5.2329998 -1.738 0.34999999
-2.513 -5.2410002 -1.738 0.31
-2.5020001 -5.2589998 -1.742 0.28999999
-2.4809999 -5.2589998 -1.739 0.36000001
-2.474 -5.2639999 -1.74 0.31
-2.461 -5.2810001 -1.743 0.31
-2.441 -5.2810001 -1.74 0.34
-2.424 -5.2870002 -1.74 0.31999999
-2.414 -5.309 -1.745 0.36000001
-2.391 -5.303 -1.74 0.28999999
-2.3759999 -5.3150001 -1.742 0.31
-2.358 -5.3189998 -1.74 0.30000001
-2.3469999 -5.3179998 -1.738 0.31999999
-2.335 -5.3340001 -1.742 0.34
-2.325 -5.3569999 -1.747 0.34999999
-2.299 -5.3449998 -1.74 0.28999999
-2.283 -5.3540001 -1.7410001 0.31
-2.2690001 -5.3660002 -1.743 0.31
-2.2479999 -5.3629999 -1.739 0.33000001
-2.237 -5.3610001 -1.737 0.31
-2.23 -5.3930001 -1.7460001 0.34
-2.2079999 -5.3850002 -1.7410001 0.34
-2.1960001 -5.4050002 -1.745 0.36000001
-2.1730001 -5.3969998 -1.74 0.25999999
-2.1589999 -5.4109998 -1.743 0.40000001
-2.151 -5.4159999 -1.743 0.30000001
-2.1359999 -5.4289999 -1.745 0.31999999
-2.1110001 -5.4159999 -1.738 0.31999999
-2.098 -5.4310002 -1.742 0.31
-2.0840001 -5.447 -1.745 0.31
-2.0680001 -5.4549999 -1.745 0.34
-2.0510001 -5.4629998 -1.7460001 0.31
-2.0380001 -5.454 -1.742 0.28
-2.0209999 -5.4619999 -1.742 0.30000001
-2.01 -5.4840002 -1.748 0.34
-1.989 -5.48 -1.744 0.28999999
-1.973 -5.4899998 -1.745 0.30000001
-1.957 -5.4980001 -1.7460001 0.33000001
-1.937 -5.4990001 -1.744 0.28999999
-1.921 -5.506 -1.745 0.30000001
-1.918 -5.526 -1.75 0.34
-1.901 -5.533 -1.751 0.34999999
-1.887 -5.5500002 -1.7539999 0.31
-1.8660001 -5.5450001 -1.751 0.23
-1.848 -5.5489998 -1.75 0.18000001
-1.8329999 -5.5599999 -1.752 0.20999999
-1.784 -5.4439998 -1.712 0
-1.8049999 -5.5640001 -1.75 0
-1.781 -5.5489998 -1.743 0
-1.76 -5.546 -1.74 0
-1.7460001 -5.5619998 -1.744 0
-1.7460001 -5.6220002 -1.762 0.1
-1.7410001 -5.6680002 -1.776 0.12
-1.73 -5.6630001 -1.773 0.17
-1.689 -5.5939999 -1.748 0.12
-1.67 -5.5939999 -1.7460001 0.2
-1.652 -5.599 -1.7460001 0.23
-1.6339999 -5.6020002 -1.7460001 0.28999999
-1.615 -5.6020002 -1.744 0.30000001
-1.595 -5.5999999 -1.742 0.31
-1.581 -5.586 -1.7359999 0.25999999
-1.567 -5.6009998 -1.74 0.34
-1.546 -5.5949998 -1.7359999 0.28999999
-1.533 -5.6149998 -1.7410001 0.33000001
-1.5140001 -5.6139998 -1.739 0.31999999
-1.492 -5.6040001 -1.734 0.28
-1.477 -5.618 -1.737 0.34
-1.46 -5.6240001 -1.738 0.33000001
-1.45 -5.6230001 -1.737 0.30000001
-1.432 -5.6259999 -1.7359999 0.28999999
-1.4119999 -5.6230001 -1.734 0.28999999
-1.397 -5.6360002 -1.737 0.34
-1.378 -5.6350002 -1.735 0.30000001
-1.359 -5.6339998 -1.733 0.30000001
-1.342 -5.6420002 -1.734 0.31999999
-1.3329999 -5.6440001 -1.734 0.34
-1.3150001 -5.6479998 -1.734 0.31999999
-1.295 -5.6409998 -1.7309999 0.28999999
-1.279 -5.6550002 -1.734 0.31
-1.262 -5.6620002 -1.735 0.34
-1.242 -5.6550002 -1.7309999 0.28999999
-1.223 -5.6529999 -1.729 0.31999999
-1.216 -5.6630001 -1.732 0.31999999
-1.196 -5.6589999 -1.729 0.31
-1.179 -5.665 -1.73 0.31999999
-1.1619999 -5.6700001 -1.7309999 0.34
-1.143 -5.6680002 -1.729 0.31999999
-1.125 -5.6719999 -1.729 0.31999999
-1.107 -5.677 -1.729 0.34
-1.098 -5.677 -1.729 0.30000001
-1.08 -5.677 -1.728 0.31
-1.062 -5.6799998 -1.728 0.30000001
-1.045 -5.6890001 -1.729 0.33000001
-1.026 -5.6849999 -1.727 0.28999999
-1.0089999 -5.697 -1.73 0.34999999
-0.991 -5.697 -1.729 0.31999999
-0.98000002 -5.6849999 -1.724 0.28999999
-0.96200001 -5.6900001 -1.725 0.31
-0.94400001 -5.691 -1.724 0.31
-0.92699999 -5.698 -1.726 0.34999999
-0.90799999 -5.697 -1.724 0.28999999
-0.889 -5.6939998 -1.723 0.31
-0.87300003 -5.71 -1.727 0.34999999
-0.86299998 -5.704 -1.724 0.28999999
-0.84500003 -5.7069998 -1.724 0.31999999
-0.82700002 -5.7049999 -1.723 0.33000001
-0.80900002 -5.7080002 -1.723 0.30000001
-0.79100001 -5.711 -1.723 0.31999999
-0.77200001 -5.7069998 -1.721 0.31
-0.75700003 -5.7270002 -1.727 0.33000001
-0.74699998 -5.7259998 -1.726 0.33000001
-0.72899997 -5.7259998 -1.726 0.28999999
-0.70899999 -5.7160001 -1.721 0.31
-0.69199997 -5.7179999 -1.721 0.30000001
-0.67299998 -5.7140002 -1.72 0.31999999
-0.65600002 -5.7259998 -1.723 0.31
-0.639 -5.7329998 -1.724 0.33000001
-0.62800002 -5.723 -1.721 0.30000001
-0.611 -5.7270002 -1.721 0.34
-0.59399998 -5.7379999 -1.724 0.33000001
-0.57499999 -5.7309999 -1.721 0.31999999
-0.55699998 -5.7340002 -1.722 0.33000001
-0.53899997 -5.7420001 -1.724 0.31999999
-0.52100003 -5.7360001 -1.721 0.33000001
-0.51099998 -5.7329998 -1.72 0.31999999
-0.49399999 -5.7420001 -1.723 0.30000001
-0.47499999 -5.7319999 -1.719 0.31
-0.458 -5.7470002 -1.723 0.31999999
-0.44100001 -5.7649999 -1.729 0.31999999
-0.421 -5.7420001 -1.721 0.31999999
-0.40400001 -5.7509999 -1.723 0.25
-0.39500001 -5.757 -1.725 0.20999999
-0.37599999 -5.7410002 -1.72 0.16
-0.36000001 -5.7789998 -1.7309999 0.14
-0.34400001 -5.8060002 -1.74 0.16
-0.32800001 -5.8470001 -1.752 0.23999999
-0.30399999 -5.7509999 -1.721 0
-0.287 -5.7690001 -1.727 0
-0.27599999 -5.7280002 -1.714 0
-0.23999999 -5.7470002 -1.719 0.18000001
-0.223 -5.7649999 -1.724 0.14
-0.204 -5.7519999 -1.72 0.20999999
-0.18700001 -5.7620001 -1.723 0.23
-0.168 -5.7340002 -1.714 0.27000001
-0.15899999 -5.7420001 -1.717 0.31
-0.141 -5.7329998 -1.714 0.31
-0.122 -5.7280002 -1.712 0.25999999
-0.104 -5.7280002 -1.712 0.33000001
-0.086999997 -5.73 -1.712 0.30000001
-0.068000004 -5.7270002 -1.711 0.31999999
-0.050000001 -5.7270002 -1.711 0.31
-0.041000001 -5.723 -1.71 0.31999999
-0.023 -5.723 -1.71 0.31999999
-0.0049999999 -5.7189999 -1.709 0.28999999
0.013 -5.7210002 -1.709 0.33000001
0.030999999 -5.723 -1.71 0.31
0.048 -5.7249999 -1.71 0.31999999
0.066 -5.723 -1.71 0.31
0.075000003 -5.7249999 -1.71 0.31999999
0.093000002 -5.7220001 -1.71 0.31
0.111 -5.7179999 -1.709 0.31999999
0.12899999 -5.7059999 -1.705 0.31999999
0.147 -5.7140002 -1.707 0.31
0.16500001 -5.704 -1.704 0.28999999
0.183 -5.711 -1.707 0.33000001
0.192 -5.7069998 -1.706 0.31999999
0.20900001 -5.6950002 -1.702 0.28999999
0.228 -5.7010002 -1.704 0.33000001
0.245 -5.6989999 -1.704 0.31999999
0.26300001 -5.698 -1.704 0.33000001
0.28099999 -5.6900001 -1.701 0.28
0.29899999 -5.6890001 -1.701 0.34
0.30700001 -5.6820002 -1.7 0.30000001
0.32600001 -5.6950002 -1.704 0.34999999
0.34400001 -5.6939998 -1.704 0.31
0.361 -5.6869998 -1.702 0.33000001
0.37900001 -5.684 -1.701 0.33000001
0.39700001 -5.6750002 -1.699 0.30000001
0.414 -5.6719999 -1.698 0.30000001
0.42300001 -5.6729999 -1.699 0.30000001
0.44100001 -5.6739998 -1.7 0.34
0.45899999 -5.6739998 -1.7 0.31999999
0.477 -5.671 -1.7 0.31999999
0.495 -5.6750002 -1.701 0.31999999
0.51200002 -5.6659999 -1.699 0.28999999
0.52899998 -5.651 -1.6950001 0.31
0.54000002 -5.6690001 -1.701 0.33000001
0.55699998 -5.665 -1.7 0.31999999
0.574 -5.6560001 -1.698 0.30000001
0.59299999 -5.6599998 -1.7 0.33000001
0.611 -5.6620002 -1.701 0.31999999
0.62699997 -5.6430001 -1.6950001 0.28999999
0.64499998 -5.6459999 -1.697 0.33000001
0.66299999 -5.6479998 -1.698 0.33000001
0.671 -5.638 -1.6950001 0.31999999
0.68900001 -5.6409998 -1.697 0.31999999
0.70700002 -5.6409998 -1.698 0.34999999
0.72399998 -5.6329999 -1.696 0.27000001
0.74400002 -5.6500001 -1.702 0.13
0.76200002 -5.6469998 -1.702 0.20999999
0.77600002 -5.6820002 -1.714 0
0.78899997 -5.645 -1.7029999 0
0.80599999 -5.6350002 -1.7 0
0.82300001 -5.6269999 -1.698 0
0.84200001 -5.6339998 -1.701 0
0.861 -5.645 -1.706 0
0.88599998 -5.6890001 -1.721 0
2.756 -5.0630002 -1.723 0
2.826 -4.9460001 -1.701 0.25
2.826 -4.9109998 -1.692 0.23999999
2.8440001 -4.9070001 -1.693 0.20999999
2.852 -4.9029999 -1.693 0.23999999
2.8570001 -4.875 -1.687 0.18000001
2.8770001 -4.875 -1.6900001 0.28999999
2.8859999 -4.8559999 -1.686 0.28999999
2.8900001 -4.8270001 -1.679 0.30000001
2.898 -4.8060002 -1.675 0.25999999
2.9219999 -4.8119998 -1.6799999 0.33000001
2.9230001 -4.796 -1.676 0.33000001
2.9349999 -4.7820001 -1.674 0.31
2.954 -4.7789998 -1.676 0.31
2.9619999 -4.7579999 -1.6720001 0.31999999
2.974 -4.744 -1.67 0.30000001
2.987 -4.7319999 -1.669 0.31
3.0050001 -4.7270002 -1.671 0.34999999
3.007 -4.7140002 -1.668 0.30000001
3.029 -4.7160001 -1.6720001 0.36000001
3.036 -4.6939998 -1.6670001 0.28999999
3.046 -4.678 -1.665 0.31999999
3.069 -4.6810002 -1.67 0.31999999
3.0739999 -4.6570001 -1.664 0.31999999
3.089 -4.6469998 -1.664 0.31
3.1029999 -4.652 -1.668 0.34
3.112 -4.6339998 -1.665 0.31999999
3.128 -4.6259999 -1.665 0.30000001
3.1440001 -4.619 -1.6670001 0.33000001
3.1470001 -4.592 -1.66 0.30000001
3.1619999 -4.5840001 -1.661 0.31
3.181 -4.5799999 -1.663 0.30000001
3.1849999 -4.5700002 -1.661 0.31
3.1949999 -4.5539999 -1.659 0.31999999
3.2130001 -4.5489998 -1.661 0.31999999
3.2260001 -4.5370002 -1.66 0.36000001
3.237 -4.5219998 -1.658 0.28999999
3.253 -4.5149999 -1.659 0.33000001
3.2579999 -4.493 -1.654 0.31999999
3.2709999 -4.4949999 -1.6569999 0.31999999
3.2839999 -4.4829998 -1.6569999 0.34
3.289 -4.461 -1.652 0.31
3.312 -4.4629998 -1.6569999 0.31999999
3.3280001 -4.4549999 -1.658 0.31999999
3.3299999 -4.428 -1.651 0.31
3.3499999 -4.4250002 -1.654 0.31
3.3559999 -4.4200001 -1.654 0.30000001
3.3729999 -4.4120002 -1.656 0.37
3.385 -4.4000001 -1.655 0.30000001
3.392 -4.3800001 -1.651 0.31999999
3.401 -4.3639998 -1.649 0.31
3.425 -4.3670001 -1.654 0.31999999
3.434 -4.3499999 -1.652 0.31
3.434 -4.335 -1.648 0.31999999
3.45 -4.3280001 -1.65 0.36000001
3.4690001 -4.323 -1.652 0.31999999
3.4690001 -4.2950001 -1.645 0.31999999
3.49 -4.2930002 -1.649 0.30000001
3.5020001 -4.2810001 -1.648 0.31
3.5109999 -4.2639999 -1.646 0.31
3.5220001 -4.2639999 -1.648 0.31
3.527 -4.243 -1.6440001 0.31999999
3.54 -4.2319999 -1.6440001 0.31
3.5580001 -4.2270002 -1.647 0.31999999
3.5699999 -4.2140002 -1.646 0.31999999
3.575 -4.1919999 -1.642 0.34
3.5969999 -4.191 -1.646 0.34
3.599 -4.1799998 -1.643 0.31
3.615 -4.1729999 -1.645 0.31999999
3.631 -4.164 -1.647 0.31999999
3.6429999 -4.152 -1.646 0.36000001
3.641 -4.1230001 -1.6390001 0.28999999
3.664 -4.1230001 -1.643 0.31
3.675 -4.1100001 -1.643 0.33000001
3.678 -4.0999999 -1.641 0.31
3.6989999 -4.0970001 -1.645 0.36000001
3.704 -4.0770001 -1.641 0.28999999
3.71 -4.0580001 -1.638 0.31999999
3.7290001 -4.053 -1.641 0.34
3.7449999 -4.0440001 -1.642 0.30000001
3.747 -4.0209999 -1.637 0.28999999
3.76 -4.0229998 -1.64 0.33000001
3.767 -4.0050001 -1.638 0.30000001
3.79 -4.0040002 -1.643 0.34999999
3.803 -3.9920001 -1.643 0.33000001
3.799 -3.964 -1.636 0.25999999
3.8239999 -3.964 -1.641 0.38
3.8369999 -3.954 -1.642 0.30000001
3.8380001 -3.9419999 -1.6390001 0.31999999
3.8559999 -3.9360001 -1.642 0.30000001
3.8699999 -3.925 -1.642 0.36000001
3.8729999 -3.9030001 -1.638 0.28999999
3.8929999 -3.8989999 -1.642 0.34
3.8929999 -3.875 -1.636 0.27000001
3.921 -3.8789999 -1.643 0.38
3.9170001 -3.862 -1.6390001 0.28999999
3.9319999 -3.852 -1.64 0.31
3.9400001 -3.836 -1.638 0.33000001
3.9560001 -3.8269999 -1.64 0.31
3.9679999 -3.8150001 -1.64 0.31999999
3.98 -3.802 -1.64 0.33000001
3.9920001 -3.79 -1.64 0.34
3.9990001 -3.7850001 -1.64 0.28999999
4.0110002 -3.7720001 -1.64 0.31
4.0180001 -3.756 -1.6390001 0.31999999
4.033 -3.7460001 -1.64 0.31
4.0489998 -3.737 -1.642 0.28
4.0650001 -3.7279999 -1.643 0.34999999
4.072 -3.711 -1.642 0.31999999
4.0739999 -3.701 -1.64 0.33000001
4.0910001 -3.6930001 -1.642 0.37
4.0999999 -3.678 -1.641 0.30000001
4.1069999 -3.661 -1.6390001 0.31999999
4.1230001 -3.652 -1.641 0.30000001
4.1329999 -3.638 -1.64 0.30000001
4.1440001 -3.625 -1.64 0.28
4.152 -3.6199999 -1.641 0.34999999
4.1599998 -3.6040001 -1.64 0.38
4.1739998 -3.5929999 -1.641 0.37
4.177 -3.573 -1.637 0.44999999
4.1939998 -3.5650001 -1.64 0.40000001
4.2059999 -3.553 -1.64 0.38999999
4.2150002 -3.5369999 -1.6390001 0.38
4.2160001 -3.527 -1.637 0.40000001
4.2329998 -3.5179999 -1.64 0.37
