# .PCD v0.7 - Point Cloud Data file format
VERSION 0.7
FIELDS x y z intensity
SIZE 4 4 4 4
TYPE F F F F
COUNT 1 1 1 1
WIDTH 1343
HEIGHT 1
VIEWPOINT 0 0 0 1 0 0 0
POINTS 1343
DATA ascii
-7.9499998 4.573 -1.845 0.36000001
-7.9629998 4.5469999 -1.845 0.34999999
-7.9640002 4.5149999 -1.841 0.31999999
-7.9809999 4.5079999 -1.844 0.36000001
-7.9829998 4.4759998 -1.841 0.31
-8.007 4.4569998 -1.844 0.36000001
-8.0129995 4.427 -1.841 0.30000001
-8.0299997 4.4029999 -1.842 0.36000001
-8.0539999 4.3839998 -1.845 0.34
-8.0469999 4.3470001 -1.84 0.28999999
-8.0710001 4.3280001 -1.842 0.31999999
-8.0900002 4.3210001 -1.845 0.34999999
-8.0930004 4.29 -1.8430001 0.34
-8.0979996 4.2600002 -1.841 0.28
-8.125 4.2420001 -1.844 0.36000001
-8.1230001 4.2090001 -1.84 0.28999999
-8.1409998 4.1859999 -1.841 0.36000001
-8.1459999 4.1560001 -1.839 0.30000001
-8.1499996 4.1420002 -1.839 0.31999999
-8.1759996 4.1220002 -1.842 0.34999999
-7.7680001 3.888 -1.7410001 0.14
-7.6079998 3.779 -1.7 0.56999999
-7.6539998 3.7709999 -1.7079999 0.31999999
-8.2290001 4.02 -1.842 0.34
-8.2480001 3.9979999 -1.844 0.34
-8.2559996 3.9860001 -1.844 0.34999999
-8.2700005 3.961 -1.845 0.31999999
-8.29 3.938 -1.846 0.34
-8.3079996 3.914 -1.848 0.34999999
-8.3360004 3.8959999 -1.852 0.34
-8.3479996 3.869 -1.852 0.31999999
-8.3579998 3.842 -1.851 0.33000001
-8.3590002 3.8269999 -1.85 0.28
-8.3909998 3.809 -1.854 0.34999999
-8.4099998 3.786 -1.8559999 0.34999999
-8.4230003 3.76 -1.857 0.30000001
-8.4370003 3.7349999 -1.857 0.31999999
-8.4680004 3.717 -1.862 0.38999999
-8.4829998 3.6919999 -1.862 0.30000001
-8.4960003 3.6819999 -1.864 0.28
-8.5459995 3.671 -1.873 0.34
-8.5970001 3.661 -1.882 0.50999999
-8.6260004 3.641 -1.886 0.36000001
-8.6520004 3.6199999 -1.89 0.33000001
-8.6529999 3.589 -1.887 0.33000001
-8.6639996 3.5610001 -1.887 0.31
-8.6680002 3.5309999 -1.886 0.31
-8.677 3.5190001 -1.886 0.38999999
-8.6590004 3.48 -1.88 0.44
-8.6700001 3.4530001 -1.88 0.36000001
-8.6920004 3.4300001 -1.882 0.33000001
-8.7150002 3.408 -1.885 0.38
-8.7040005 3.372 -1.88 0.31
-8.7139997 3.3440001 -1.88 0.33000001
-8.7229996 3.332 -1.881 0.31999999
-8.7360001 3.3050001 -1.881 0.31999999
-8.7480001 3.279 -1.882 0.37
-8.7580004 3.2509999 -1.882 0.30000001
-8.7749996 3.2260001 -1.883 0.33000001
-8.7969999 3.2030001 -1.886 0.37
-8.7939997 3.1860001 -1.8839999 0.31
-8.8210001 3.164 -1.888 0.34999999
-8.823 3.1340001 -1.886 0.31
-8.8409996 3.109 -1.888 0.36000001
-8.8450003 3.079 -1.887 0.28999999
-8.8800001 3.0599999 -1.893 0.36000001
-8.8879995 3.0320001 -1.892 0.31999999
-8.9040003 3.0220001 -1.895 0.31
-8.9099998 2.9920001 -1.8940001 0.31
-8.9359999 2.97 -1.898 0.34999999
-8.9359999 2.9389999 -1.896 0.28999999
-8.9540005 2.914 -1.898 0.31
-8.9709997 2.888 -1.899 0.34
-8.9849997 2.8610001 -1.901 0.31
-8.9840002 2.846 -1.899 0.28999999
-9.0080004 2.822 -1.903 0.33000001
-9.0220003 2.7950001 -1.904 0.31999999
-9.0459995 2.7720001 -1.9069999 0.30000001
-9.0530005 2.743 -1.9069999 0.28999999
-9.0769997 2.7190001 -1.91 0.31999999
-9.0830002 2.6889999 -1.91 0.28
-9.1160002 2.668 -1.915 0.31
-9.118 2.6530001 -1.915 0.28999999
-9.132 2.6259999 -1.916 0.28999999
-9.1350002 2.596 -1.915 0.28
-9.158 2.5710001 -1.918 0.28
-9.1569996 2.54 -1.916 0.31
-9.1590004 2.51 -1.915 0.28
-9.1800003 2.484 -1.918 0.28
-9.1879997 2.471 -1.919 0.27000001
-9.2030001 2.444 -1.92 0.27000001
-9.1859999 2.4089999 -1.915 0.18000001
-9.2309999 2.3900001 -1.923 0.28999999
-9.2370005 2.3599999 -1.923 0.25
-9.2589998 2.335 -1.926 0.25999999
-9.2650003 2.3050001 -1.926 0.12
-7.2470002 1.7970001 -1.479 0.16
-7.1560001 1.751 -1.4579999 0.17
-7.177 1.732 -1.461 0.25
-7.1690001 1.706 -1.4579999 0
-7.0669999 1.659 -1.4349999 0
-7.0510001 1.632 -1.4299999 0
-7.0159998 1.601 -1.421 0
-6.9860001 1.5829999 -1.414 0
-6.9949999 1.562 -1.415 0
-6.9580002 1.531 -1.406 0
-6.9439998 1.505 -1.402 0.13
-6.9429998 1.482 -1.4 0.2
-6.9320002 1.457 -1.397 0.20999999
-6.9169998 1.431 -1.393 0.23999999
-6.9060001 1.406 -1.3890001 0.27000001
-6.895 1.393 -1.386 0.28999999
-6.8979998 1.3710001 -1.386 0.31999999
-6.9099998 1.35 -1.388 0.31999999
-6.895 1.325 -1.383 0.44999999
-6.9050002 1.304 -1.385 0.37
-6.9070001 1.2819999 -1.3839999 0.44999999
-6.914 1.261 -1.385 0.36000001
-6.9089999 1.249 -1.383 0.44999999
-6.9089999 1.227 -1.383 0.38
-6.9200001 1.206 -1.3839999 0.44999999
-6.9029999 1.181 -1.38 0.41
-6.9180002 1.161 -1.382 0.40000001
-6.9369998 1.142 -1.386 0.34
-6.9159999 1.1160001 -1.38 0.38
-6.9439998 1.11 -1.386 0.34999999
-6.9499998 1.0880001 -1.386 0.47
-6.9239998 1.062 -1.38 0.41
-6.9390001 1.0420001 -1.383 0.47
-6.9499998 1.021 -1.3839999 0.34
-6.9590001 1 -1.386 0.79000002
-6.9039998 0.97000003 -1.373 0.99000001
-6.875 0.95499998 -1.3660001 0.99000001
-6.901 0.93699998 -1.3710001 0.99000001
-6.9289999 0.91799998 -1.377 0.99000001
-6.8889999 0.89099997 -1.368 0.99000001
-6.8860002 0.86900002 -1.3660001 0.99000001
-6.9310002 0.852 -1.376 0.99000001
-6.895 0.82599998 -1.367 0.99000001
-6.9239998 0.81800002 -1.373 0.99000001
-6.9359999 0.79799998 -1.375 0.99000001
-6.9190001 0.77399999 -1.3710001 0.99000001
-6.9289999 0.75300002 -1.373 0.99000001
-6.9299998 0.73100001 -1.372 0.99000001
-6.973 0.713 -1.381 0.99000001
-6.9569998 0.68900001 -1.377 0.99000001
-6.9689999 0.66900003 -1.3789999 0.99000001
-7.0029998 0.66100001 -1.386 0.99000001
-6.9840002 0.63700002 -1.382 0.99000001
-7.0040002 0.616 -1.386 0.99000001
-7.027 0.59600002 -1.39 0.99000001
-7.0289998 0.574 -1.39 0.99000001
-7.0380001 0.55199999 -1.392 0.99000001
-7.0440001 0.53100002 -1.393 0.99000001
-7.0040002 0.51700002 -1.3839999 0.93000001
-7.138 0.50300002 -1.4119999 0.57999998
-7.151 0.48199999 -1.415 0.12
-7.1469998 0.45899999 -1.414 0.18000001
-7.1789999 0.43799999 -1.42 0.2
-7.1890001 0.41600001 -1.4220001 0.090000004
-7.204 0.39399999 -1.425 0.079999998
-7.2140002 0.38299999 -1.427 0.079999998
-7.2189999 0.361 -1.428 0.039999999
-7.2789998 0.34099999 -1.441 0
-7.2540002 0.317 -1.4349999 0
-7.2810001 0.29499999 -1.441 0
-7.303 0.273 -1.4450001 0.02
-7.349 0.25099999 -1.455 0.15000001
-7.4000001 0.241 -1.466 0.19
-7.3930001 0.21799999 -1.464 0.039999999
-7.4029999 0.19499999 -1.466 0.039999999
-7.427 0.17200001 -1.471 0.029999999
-7.467 0.149 -1.48 0.07
-7.507 0.126 -1.488 0
-7.5029998 0.103 -1.487 0
-9.625 0.079000004 -1.943 0.25999999
-9.6230001 0.048999999 -1.942 0.28999999
-9.6219997 0.018999999 -1.942 0.27000001
-9.6269999 -0.012 -1.943 0.25999999
-9.6309996 -0.041999999 -1.944 0.25999999
-9.6350002 -0.071999997 -1.9450001 0.25999999
-9.6370001 -0.086999997 -1.9450001 0.28999999
-9.6169996 -0.117 -1.941 0.28999999
-9.9429998 -0.169 -2.0109999 0.28999999
-9.934 -0.2 -2.0090001 0.28999999
-9.934 -0.23100001 -2.0090001 0.27000001
-9.9370003 -0.26300001 -2.01 0.28999999
-9.9569998 -0.29499999 -2.0150001 0.27000001
-9.9469995 -0.32499999 -2.013 0.27000001
-9.9499998 -0.34099999 -2.0139999 0.28
-9.9429998 -0.37200001 -2.0120001 0.28999999
-9.9440002 -0.40400001 -2.013 0.27000001
-9.948 -0.435 -2.0139999 0.28999999
-9.9510002 -0.46599999 -2.0150001 0.27000001
-9.9469995 -0.498 -2.0139999 0.28999999
-9.948 -0.52899998 -2.0150001 0.30000001
-9.9449997 -0.54500002 -2.0139999 0.28999999
-9.941 -0.57599998 -2.0139999 0.30000001
-9.9320002 -0.60600001 -2.0120001 0.28
-9.9449997 -0.639 -2.016 0.31
-9.9329996 -0.66900003 -2.0139999 0.28999999
-9.9390001 -0.70099998 -2.0150001 0.30000001
-9.9390001 -0.73199999 -2.016 0.28999999
-9.9399996 -0.74800003 -2.016 0.28
-9.9350004 -0.77899998 -2.016 0.30000001
-9.9250002 -0.81 -2.0139999 0.28999999
-9.9239998 -0.84100002 -2.0139999 0.31999999
-9.9239998 -0.87199998 -2.0150001 0.28
-9.9250002 -0.90399998 -2.016 0.28
-9.9099998 -0.93400002 -2.013 0.27000001
-9.9139996 -0.94999999 -2.0139999 0.31999999
-9.9130001 -0.98100001 -2.0150001 0.27000001
-9.9139996 -1.013 -2.016 0.31999999
-9.8909998 -1.0420001 -2.0109999 0.28
-9.9090004 -1.075 -2.016 0.31999999
-9.9040003 -1.1059999 -2.016 0.28999999
-9.9099998 -1.1390001 -2.0179999 0.31
-9.9029999 -1.154 -2.016 0.30000001
-9.8970003 -1.184 -2.016 0.28999999
-9.8990002 -1.216 -2.017 0.28999999
-9.8889999 -1.247 -2.016 0.28999999
-9.8780003 -1.277 -2.0139999 0.30000001
-9.8719997 -1.307 -2.0139999 0.28999999
-9.8769999 -1.34 -2.016 0.28999999
-9.8610001 -1.369 -2.0139999 0.31
-9.8710003 -1.386 -2.016 0.28999999
-9.8629999 -1.4170001 -2.0150001 0.30000001
-9.8660002 -1.449 -2.017 0.28
-9.8549995 -1.479 -2.016 0.28999999
-9.8450003 -1.5089999 -2.0139999 0.28999999
-9.8400002 -1.54 -2.0139999 0.28999999
-9.8369999 -1.571 -2.0150001 0.28999999
-9.8210001 -1.584 -2.0120001 0.28999999
-9.8199997 -1.6160001 -2.013 0.28999999
-9.8190002 -1.647 -2.0139999 0.30000001
-9.8269997 -1.6799999 -2.016 0.28999999
-9.8100004 -1.709 -2.0139999 0.28999999
-9.7989998 -1.739 -2.013 0.28999999
-9.8030005 -1.772 -2.0150001 0.30000001
-9.8100004 -1.789 -2.017 0.30000001
-9.7869997 -1.816 -2.013 0.31
-9.7849998 -1.848 -2.0139999 0.30000001
-9.7729998 -1.877 -2.013 0.28999999
-9.7620001 -1.9069999 -2.0109999 0.28999999
-9.7589998 -1.938 -2.0120001 0.28
-9.7340002 -1.965 -2.0079999 0.30000001
-9.7229996 -1.979 -2.006 0.25999999
-9.7189999 -2.01 -2.007 0.30000001
-9.7089996 -2.04 -2.006 0.28
-9.691 -2.0680001 -2.003 0.28999999
-9.6859999 -2.098 -2.0039999 0.28999999
-9.6829996 -2.1300001 -2.0050001 0.27000001
-9.665 -2.1570001 -2.0020001 0.28999999
-9.6540003 -2.171 -2.0009999 0.27000001
-9.6440001 -2.2 -2 0.27000001
-9.6379995 -2.2309999 -2 0.28
-9.6350002 -2.2620001 -2.0009999 0.25
-9.6239996 -2.2920001 -2 0.28999999
-9.6079998 -2.319 -1.998 0.28
-9.6079998 -2.352 -2 0.28
-9.5979996 -2.365 -1.998 0.27000001
-9.585 -2.3940001 -1.997 0.28999999
-9.5760002 -2.424 -1.997 0.28999999
-9.5679998 -2.454 -1.997 0.28999999
-9.5550003 -2.4820001 -1.995 0.28999999
-9.5340004 -2.5090001 -1.993 0.31
-9.5290003 -2.54 -1.993 0.28999999
-9.5139999 -2.5669999 -1.992 0.27000001
-9.5120001 -2.5829999 -1.992 0.31
-9.5 -2.612 -1.9910001 0.28999999
-9.4899998 -2.641 -1.9910001 0.28999999
-9.4779997 -2.6700001 -1.99 0.28
-9.4689999 -2.7 -1.99 0.28999999
-9.4610004 -2.7290001 -1.99 0.28999999
-9.4370003 -2.7550001 -1.987 0.27000001
-9.4359999 -2.7709999 -1.988 0.31
-9.4160004 -2.7969999 -1.985 0.28999999
-9.4040003 -2.825 -1.984 0.28
-9.3859997 -2.852 -1.982 0.28999999
-9.3620005 -2.8770001 -1.979 0.30000001
-9.3559999 -2.9070001 -1.98 0.28
-9.3339996 -2.9330001 -1.977 0.28
-9.3219995 -2.9449999 -1.975 0.28999999
-9.3109999 -2.973 -1.974 0.30000001
-9.2939997 -3 -1.973 0.31
-9.2770004 -3.027 -1.971 0.30000001
-9.2489996 -3.05 -1.967 0.28
-9.2370005 -3.0780001 -1.967 0.28999999
-9.2150002 -3.1029999 -1.964 0.28999999
-9.2119999 -3.118 -1.964 0.31999999
-9.1890001 -3.1429999 -1.961 0.28
-9.177 -3.171 -1.961 0.28999999
-9.1599998 -3.197 -1.959 0.28999999
-9.1420002 -3.223 -1.957 0.30000001
-9.1210003 -3.2479999 -1.955 0.30000001
-9.0979996 -3.2720001 -1.952 0.30000001
-9.0860004 -3.283 -1.95 0.31
-9.0810003 -3.3139999 -1.951 0.33000001
-9.0539999 -3.336 -1.948 0.30000001
-9.0509996 -3.368 -1.949 0.34
-9.0159998 -3.3870001 -1.944 0.30000001
-9.0089998 -3.4170001 -1.9450001 0.30000001
-8.9910002 -3.4419999 -1.943 0.31
-8.9799995 -3.454 -1.942 0.33000001
-8.96 -3.4790001 -1.9400001 0.31999999
-8.9490004 -3.507 -1.9400001 0.31999999
-8.9239998 -3.529 -1.936 0.33000001
-8.9200001 -3.5599999 -1.938 0.34
-8.901 -3.585 -1.936 0.34
-8.875 -3.6070001 -1.933 0.28999999
-8.8730001 -3.6389999 -1.9349999 0.34999999
-8.8620005 -3.6500001 -1.934 0.34999999
-8.8430004 -3.675 -1.932 0.34
-8.8330002 -3.704 -1.933 0.34
-8.816 -3.7290001 -1.931 0.30000001
-8.79 -3.7509999 -1.928 0.31999999
-8.7869997 -3.7820001 -1.9299999 0.36000001
-8.7629995 -3.8039999 -1.927 0.30000001
-8.7620001 -3.8199999 -1.928 0.36000001
-8.7410002 -3.8440001 -1.926 0.30000001
-8.7290001 -3.8710001 -1.926 0.31999999
-8.7130003 -3.8970001 -1.925 0.33000001
-8.6920004 -3.921 -1.923 0.33000001
-8.6850004 -3.95 -1.925 0.36000001
-8.6719999 -3.961 -1.923 0.31
-8.658 -3.987 -1.9220001 0.31999999
-8.6330004 -4.0079999 -1.92 0.30000001
-8.6379995 -4.0440001 -1.924 0.43000001
-8.618 -4.0679998 -1.9220001 0.28999999
-8.5860004 -4.085 -1.9170001 0.31999999
-8.5749998 -4.1129999 -1.918 0.33000001
-8.5600004 -4.1389999 -1.9170001 0.31999999
-8.5550003 -4.1539998 -1.918 0.33000001
-8.5349998 -4.177 -1.916 0.34
-8.5200005 -4.2030001 -1.916 0.33000001
-8.5019999 -4.2270002 -1.914 0.34
-8.4849997 -4.2519999 -1.914 0.36000001
-8.4820004 -4.2839999 -1.916 0.33000001
-8.4720001 -4.3119998 -1.9170001 0.38999999
-8.4510002 -4.3179998 -1.914 0.31999999
-8.434 -4.3429999 -1.913 0.34
-8.4130001 -4.3660002 -1.911 0.34999999
-8.3940001 -4.3899999 -1.91 0.33000001
-8.3809996 -4.4159999 -1.91 0.34
-8.3620005 -4.4400001 -1.909 0.34
-8.3509998 -4.4679999 -1.909 0.34
-8.3339996 -4.4749999 -1.9069999 0.34999999
-8.3260002 -4.5050001 -1.909 0.36000001
-8.3070002 -4.5279999 -1.9069999 0.34
-8.2930002 -4.5549998 -1.9069999 0.36000001
-8.2650003 -4.573 -1.904 0.36000001
-8.2539997 -4.6009998 -1.905 0.33000001
-8.2309999 -4.6220002 -1.903 0.34
-8.2080002 -4.6430001 -1.901 0.34999999
-8.1969995 -4.6539998 -1.9 0.31999999
-8.1890001 -4.6830001 -1.901 0.37
-8.1709995 -4.7069998 -1.901 0.36000001
-8.1479998 -4.7280002 -1.899 0.31999999
-8.1359997 -4.7550001 -1.899 0.34
-8.1210003 -4.7810001 -1.899 0.37
-8.1029997 -4.8039999 -1.899 0.36000001
-8.099 -4.8189998 -1.899 0.34
-8.0819998 -4.8439999 -1.899 0.34999999
-8.0699997 -4.8709998 -1.9 0.36000001
-8.0550003 -4.8959999 -1.9 0.34999999
-8.0410004 -4.9229999 -1.9 0.31999999
-8.0240002 -4.947 -1.9 0.34
-8.0190001 -4.9619999 -1.901 0.34
-7.9920001 -4.9790001 -1.898 0.34999999
-7.9840002 -5.0100002 -1.9 0.34
-7.974 -5.0380001 -1.901 0.34
-7.961 -5.0650001 -1.902 0.33000001
-7.9429998 -5.0890002 -1.901 0.33000001
-7.9260001 -5.1129999 -1.901 0.33000001
-7.908 -5.1370001 -1.901 0.33000001
-7.8969998 -5.1469998 -1.9 0.34
-7.8790002 -5.171 -1.899 0.36000001
-7.8610001 -5.1939998 -1.899 0.36000001
-7.849 -5.2220001 -1.9 0.34999999
-7.8330002 -5.2470002 -1.9 0.34
-7.8280001 -5.2789998 -1.903 0.34
-7.8000002 -5.296 -1.9 0.34999999
-7.7950001 -5.3099999 -1.901 0.31999999
-7.7859998 -5.3400002 -1.903 0.34
-7.7659998 -5.3629999 -1.902 0.33000001
-7.7519999 -5.3889999 -1.903 0.34999999
-7.7259998 -5.4070001 -1.901 0.34999999
-7.71 -5.4320002 -1.901 0.33000001
-7.6919999 -5.4549999 -1.901 0.31999999
-7.6939998 -5.4749999 -1.904 0.38
-7.6659999 -5.4910002 -1.901 0.30000001
-7.6550002 -5.52 -1.902 0.33000001
-7.6420002 -5.5479999 -1.904 0.34
-7.6230001 -5.5700002 -1.903 0.31999999
-7.6059999 -5.5939999 -1.903 0.34
-7.5929999 -5.6220002 -1.904 0.34999999
-7.5840001 -5.6339998 -1.904 0.36000001
-7.5689998 -5.6599998 -1.905 0.34999999
-7.5549998 -5.6859999 -1.906 0.34
-7.5289998 -5.704 -1.904 0.33000001
-7.513 -5.7280002 -1.904 0.33000001
-7.4920001 -5.75 -1.904 0.31999999
-7.4770002 -5.776 -1.904 0.31999999
-7.4749999 -5.7930002 -1.906 0.37
-7.4510002 -5.8119998 -1.905 0.31999999
-7.4369998 -5.8390002 -1.906 0.36000001
-7.4250002 -5.8670001 -1.908 0.34
-7.4289999 -5.9089999 -1.914 0.36000001
-7.3860002 -5.9120002 -1.9069999 0.20999999
-7.3969998 -5.9590001 -1.915 0.28999999
-7.3870001 -5.9710002 -1.915 0
-7.3670001 -5.993 -1.915 0
-7.3390002 -6.0079999 -1.9119999 0
-7.2989998 -6.0139999 -1.906 0
-7.3010001 -6.0539999 -1.9119999 0.029999999
-7.2849998 -6.0799999 -1.913 0.11
-7.257 -6.0949998 -1.911 0.20999999
-7.237 -6.0970001 -1.908 0.22
-7.1939998 -6.0999999 -1.901 0.25
-7.178 -6.125 -1.902 0.30000001
-7.1389999 -6.131 -1.896 0.34
-7.1240001 -6.1570001 -1.898 0.34
-7.1020002 -6.177 -1.897 0.28999999
-7.0689998 -6.1880002 -1.893 0.34999999
-7.046 -6.1869998 -1.8890001 0.31
-7.046 -6.2259998 -1.895 0.36000001
-7.0089998 -6.2319999 -1.89 0.30000001
-6.9959998 -6.2610002 -1.892 0.36000001
-6.9770002 -6.283 -1.892 0.30000001
-6.9419999 -6.2919998 -1.888 0.33000001
-6.9229999 -6.3130002 -1.888 0.33000001
-6.9190001 -6.3299999 -1.8890001 0.31999999
-6.8930001 -6.3460002 -1.888 0.31999999
-6.8769999 -6.3720002 -1.8890001 0.38999999
-6.8559999 -6.3920002 -1.888 0.31
-6.8270001 -6.4050002 -1.886 0.37
-6.8080001 -6.428 -1.886 0.31
-6.7880001 -6.4489999 -1.886 0.31999999
-6.7620001 -6.4650002 -1.885 0.37
-6.7509999 -6.4749999 -1.8839999 0.31
-6.7410002 -6.507 -1.888 0.31999999
-6.711 -6.5180001 -1.885 0.31999999
-6.6950002 -6.5430002 -1.886 0.34999999
-6.6729999 -6.5630002 -1.886 0.30000001
-6.6469998 -6.5780001 -1.8839999 0.34999999
-6.632 -6.605 -1.886 0.30000001
-6.6269999 -6.6209998 -1.887 0.36000001
-6.5840001 -6.619 -1.88 0.30000001
-6.5739999 -6.651 -1.8839999 0.34999999
-6.552 -6.6700001 -1.883 0.30000001
-6.5289998 -6.6890001 -1.883 0.36000001
-6.5120001 -6.7140002 -1.8839999 0.30000001
-6.4949999 -6.7389998 -1.886 0.36000001
-6.467 -6.7309999 -1.88 0.31
-6.4530001 -6.7579999 -1.882 0.31999999
-6.4310002 -6.7779999 -1.882 0.31999999
-6.3990002 -6.7870002 -1.8789999 0.33000001
-6.3969998 -6.8270001 -1.885 0.37
-6.3649998 -6.836 -1.881 0.31
-6.3499999 -6.8629999 -1.883 0.36000001
-6.3319998 -6.8660002 -1.881 0.30000001
-6.3130002 -6.888 -1.882 0.36000001
-6.2820001 -6.8979998 -1.8789999 0.31
-6.2659998 -6.9239998 -1.881 0.31999999
-6.2389998 -6.9369998 -1.8789999 0.30000001
-6.2220001 -6.9629998 -1.881 0.33000001
-6.1989999 -6.9809999 -1.88 0.33000001
-6.1859999 -6.9879999 -1.88 0.38
-6.1609998 -7.0040002 -1.8789999 0.41999999
-6.1399999 -7.0250001 -1.8789999 0.41
-6.1170001 -7.0430002 -1.8789999 0.44999999
-6.1009998 -7.0689998 -1.881 0.43000001
-6.0939999 -7.1059999 -1.886 0.31
-6.0669999 -7.119 -1.8839999 0.22
-6.0500002 -7.1230001 -1.883 0.20999999
-6.0359998 -7.151 -1.885 0.25
-6.0009999 -7.1550002 -1.881 0.07
-6.0289998 -7.2350001 -1.898 0.07
-5.9569998 -7.1939998 -1.881 0.15000001
-5.9320002 -7.21 -1.88 0.27000001
-5.8839998 -7.198 -1.872 0.30000001
-5.848 -7.177 -1.864 0.25999999
-5.8179998 -7.1859999 -1.8609999 0.34
-5.79 -7.1960001 -1.859 0.34
-5.77 -7.2179999 -1.86 0.36000001
-5.744 -7.2329998 -1.859 0.34
-5.7249999 -7.2550001 -1.86 0.34999999
-5.6989999 -7.2690001 -1.859 0.34
-5.6799998 -7.2680001 -1.857 0.33000001
-5.6609998 -7.2909999 -1.858 0.34
-5.6259999 -7.2930002 -1.854 0.28999999
-5.6090002 -7.3179998 -1.8559999 0.36000001
-5.5799999 -7.3280001 -1.854 0.30000001
-5.5570002 -7.3460002 -1.854 0.34999999
-5.5250001 -7.3509998 -1.85 0.30000001
-5.5170002 -7.3639998 -1.852 0.36000001
-5.4910002 -7.3779998 -1.851 0.30000001
-5.4660001 -7.3920002 -1.85 0.34999999
-5.4369998 -7.401 -1.848 0.31
-5.4169998 -7.4229999 -1.849 0.33000001
-5.395 -7.4419999 -1.849 0.38
-5.3610001 -7.4439998 -1.846 0.31
-5.3530002 -7.4580002 -1.847 0.36000001
-5.322 -7.4650002 -1.844 0.31
-5.3000002 -7.4829998 -1.845 0.33000001
-5.276 -7.5 -1.845 0.38
-5.25 -7.5110002 -1.844 0.28999999
-5.2309999 -7.5359998 -1.846 0.36000001
-5.198 -7.5380001 -1.842 0.31
-5.1880002 -7.5489998 -1.8430001 0.36000001
-5.1659999 -7.5669999 -1.8430001 0.34999999
-5.1300001 -7.5650001 -1.8380001 0.31
-5.1160002 -7.5960002 -1.842 0.34999999
-5.0890002 -7.6069999 -1.841 0.30000001
-5.0669999 -7.6259999 -1.842 0.34999999
-5.039 -7.6360002 -1.84 0.30000001
-5.0320001 -7.652 -1.842 0.36000001
-4.9980001 -7.6529999 -1.8380001 0.31
-4.9790001 -7.677 -1.841 0.36000001
-4.948 -7.6810002 -1.8380001 0.34999999
-4.928 -7.7030001 -1.839 0.34
-4.901 -7.7129998 -1.8380001 0.34
-4.881 -7.7350001 -1.84 0.30000001
-4.8660002 -7.7399998 -1.839 0.36000001
-4.8400002 -7.7519999 -1.8380001 0.34999999
-4.8109999 -7.7600002 -1.836 0.31
-4.7930002 -7.7849998 -1.839 0.37
-4.7649999 -7.7940001 -1.837 0.30000001
-4.7459998 -7.8189998 -1.84 0.36000001
-4.7160001 -7.823 -1.837 0.34999999
-4.704 -7.8319998 -1.8380001 0.28999999
-4.6859999 -7.8569999 -1.84 0.36000001
-4.6630001 -7.875 -1.841 0.34
-4.6420002 -7.8969998 -1.8430001 0.34
-4.6209998 -7.9180002 -1.844 0.33000001
-4.5970001 -7.934 -1.845 0.25999999
-4.6069999 -8.0100002 -1.86 0.31
-4.6069999 -8.0389996 -1.865 0.23
-4.566 -8.0249996 -1.858 0.17
-4.579 -8.1070004 -1.875 0.31999999
-4.5500002 -8.1160002 -1.874 0
-4.52 -8.1219997 -1.872 0
-4.494 -8.1359997 -1.872 0.050000001
-4.48 -8.1709995 -1.877 0.18000001
-4.4400001 -8.1569996 -1.87 0.2
-4.4039998 -8.1230001 -1.86 0.19
-4.3649998 -8.1110001 -1.854 0.28999999
-4.3369999 -8.1190004 -1.852 0.33000001
-4.3140001 -8.1379995 -1.854 0.34
-4.2740002 -8.1239996 -1.847 0.30000001
-4.256 -8.151 -1.85 0.36000001
-4.2249999 -8.1540003 -1.848 0.30000001
-4.2150002 -8.1680002 -1.849 0.38
-4.1820002 -8.165 -1.846 0.31
-4.1680002 -8.2010002 -1.851 0.36000001
-4.132 -8.1949997 -1.846 0.31
-4.1059999 -8.2080002 -1.846 0.33000001
-4.0879998 -8.2360001 -1.85 0.38
-4.052 -8.2279997 -1.845 0.31999999
-4.0430002 -8.243 -1.847 0.38
-4.0149999 -8.2510004 -1.846 0.31
-3.9849999 -8.2539997 -1.844 0.33000001
-3.96 -8.2690001 -1.844 0.33000001
-3.941 -8.2969999 -1.848 0.33000001
-3.9070001 -8.2919998 -1.844 0.31999999
-3.8870001 -8.3179998 -1.847 0.38
-3.869 -8.3120003 -1.844 0.31
-3.8380001 -8.3149996 -1.842 0.38
-3.816 -8.3360004 -1.844 0.34999999
-3.7880001 -8.342 -1.8430001 0.31
-3.76 -8.3509998 -1.842 0.31999999
-3.737 -8.3699999 -1.844 0.31999999
-3.7090001 -8.3780003 -1.8430001 0.33000001
-3.6930001 -8.3780003 -1.842 0.37
-3.6670001 -8.3900003 -1.842 0.31999999
-3.642 -8.4049997 -1.8430001 0.33000001
-3.6159999 -8.4180002 -1.8430001 0.36000001
-3.589 -8.4259996 -1.842 0.31999999
-3.5569999 -8.4239998 -1.839 0.33000001
-3.5320001 -8.441 -1.841 0.37
-3.52 -8.448 -1.841 0.30000001
-3.4879999 -8.4469995 -1.8380001 0.31999999
-3.4690001 -8.4759998 -1.842 0.37
-3.438 -8.4759998 -1.84 0.31
-3.408 -8.4790001 -1.8380001 0.33000001
-3.3859999 -8.5010004 -1.841 0.36000001
-3.358 -8.5080004 -1.84 0.31999999
-3.3399999 -8.5019999 -1.837 0.31999999
-3.3210001 -8.5310001 -1.841 0.38
-3.2880001 -8.526 -1.8380001 0.31999999
-3.2579999 -8.5279999 -1.836 0.31999999
-3.2349999 -8.5489998 -1.8380001 0.33000001
-3.214 -8.5740004 -1.842 0.40000001
-3.194 -8.6020002 -1.846 0.13
-3.171 -8.5830002 -1.841 0.20999999
-3.1340001 -8.5649996 -1.834 0.14
-3.1440001 -8.6759996 -1.857 0.40000001
-3.0880001 -8.6049995 -1.839 0
-3.0320001 -8.6190004 -1.8380001 0.23999999
-3.0050001 -8.6300001 -1.8380001 0.34
-2.98 -8.6020002 -1.831 0.17
-2.947 -8.592 -1.826 0.30000001
-2.914 -8.5830002 -1.822 0.30000001
-2.8829999 -8.5810003 -1.8200001 0.31999999
-2.8529999 -8.5810003 -1.818 0.37
-2.8169999 -8.5620003 -1.811 0.31
-2.79 -8.5710001 -1.811 0.31999999
-2.7739999 -8.5679998 -1.8099999 0.31999999
-2.75 -8.5839996 -1.811 0.36000001
-2.7179999 -8.5769997 -1.808 0.30000001
-2.6919999 -8.5880003 -1.808 0.36000001
-2.6589999 -8.5790005 -1.804 0.30000001
-2.6329999 -8.5900002 -1.8049999 0.37
-2.5999999 -8.5769997 -1.8 0.31
-2.585 -8.5780001 -1.799 0.31999999
-2.5580001 -8.5860004 -1.799 0.31999999
-2.5309999 -8.592 -1.799 0.31999999
-2.5009999 -8.5900002 -1.7970001 0.31999999
-2.4749999 -8.6000004 -1.7970001 0.31999999
-2.4460001 -8.6020002 -1.796 0.31999999
-2.4189999 -8.6120005 -1.7970001 0.37
-2.402 -8.6000004 -1.793 0.31999999
-2.378 -8.6210003 -1.796 0.38999999
-2.346 -8.6079998 -1.791 0.31999999
-2.3210001 -8.6239996 -1.794 0.31999999
-2.29 -8.6149998 -1.79 0.34999999
-2.2609999 -8.618 -1.789 0.34
-2.234 -8.625 -1.789 0.33000001
-2.217 -8.6149998 -1.786 0.31999999
-2.1900001 -8.6219997 -1.786 0.31999999
-2.1659999 -8.6389999 -1.788 0.38
-2.135 -8.6300001 -1.785 0.31999999
-2.109 -8.6409998 -1.786 0.34
-2.0810001 -8.6450005 -1.785 0.38
-2.052 -8.6459999 -1.784 0.31
-2.04 -8.6549997 -1.785 0.31999999
-2.013 -8.6610003 -1.785 0.34
-1.987 -8.6730003 -1.786 0.31999999
-1.957 -8.6680002 -1.784 0.31999999
-1.931 -8.6800003 -1.785 0.38
-1.905 -8.6899996 -1.786 0.31
-1.877 -8.6920004 -1.785 0.36000001
-1.863 -8.6949997 -1.785 0.31
-1.835 -8.6990004 -1.785 0.31999999
-1.8099999 -8.7119999 -1.786 0.36000001
-1.781 -8.7119999 -1.785 0.31999999
-1.752 -8.7119999 -1.784 0.28999999
-1.728 -8.7329998 -1.7869999 0.36000001
-1.698 -8.7229996 -1.784 0.30000001
-1.686 -8.7349997 -1.786 0.37
-1.6569999 -8.7320004 -1.784 0.30000001
-1.632 -8.7489996 -1.7869999 0.36000001
-1.604 -8.7539997 -1.7869999 0.31999999
-1.574 -8.7440004 -1.784 0.28999999
-1.549 -8.7659998 -1.7869999 0.36000001
-1.521 -8.7650003 -1.786 0.34
-1.506 -8.7639999 -1.785 0.28999999
-1.48 -8.7720003 -1.786 0.34999999
-1.454 -8.79 -1.789 0.33000001
-1.425 -8.783 -1.786 0.31
-1.397 -8.7880001 -1.786 0.31
-1.372 -8.8070002 -1.79 0.33000001
-1.342 -8.7939997 -1.786 0.33000001
-1.3279999 -8.7959995 -1.786 0.31999999
-1.303 -8.8219995 -1.791 0.31999999
-1.273 -8.8079996 -1.7869999 0.31999999
-1.248 -8.8299999 -1.791 0.31999999
-1.221 -8.8400002 -1.7920001 0.33000001
-1.192 -8.8360004 -1.79 0.31
-1.164 -8.8389997 -1.79 0.31
-1.1390001 -8.8660002 -1.795 0.33000001
-1.125 -8.8620005 -1.794 0.31999999
-1.096 -8.8620005 -1.793 0.31
-1.0700001 -8.875 -1.795 0.30000001
-1.041 -8.8719997 -1.794 0.30000001
-1.015 -8.8870001 -1.7970001 0.30000001
-0.98900002 -8.9099998 -1.801 0.31999999
-0.97299999 -8.8959999 -1.7970001 0.30000001
-0.94700003 -8.9200001 -1.802 0.30000001
-0.92000002 -8.9289999 -1.803 0.28999999
-0.89200002 -8.9379997 -1.804 0.30000001
-0.86500001 -8.948 -1.806 0.28
-0.838 -8.9569998 -1.807 0.28999999
-0.80900002 -8.9499998 -1.8049999 0.28
-0.78200001 -8.9700003 -1.809 0.27000001
-0.76599997 -8.9549999 -1.806 0.28999999
-0.73799998 -8.9519997 -1.804 0.28
-0.71100003 -8.9700003 -1.808 0.27000001
-0.68300003 -8.9820004 -1.8099999 0.25
-0.65499997 -8.974 -1.808 0.28999999
-0.62699997 -8.9879999 -1.8099999 0.28999999
-0.59799999 -8.9799995 -1.808 0.27000001
-0.58399999 -8.9790001 -1.808 0.28999999
-0.55599999 -8.9809999 -1.808 0.28999999
-0.528 -8.9879999 -1.809 0.27000001
-0.5 -8.9940004 -1.8099999 0.27000001
-0.472 -8.9969997 -1.8099999 0.28
-0.44299999 -8.9910002 -1.809 0.28
-0.41600001 -9.0080004 -1.812 0.27000001
-0.40099999 -9.0039997 -1.811 0.28
-0.373 -9.0059996 -1.811 0.28999999
-0.34400001 -8.9949999 -1.809 0.28999999
-0.31600001 -8.9980001 -1.809 0.28999999
-0.28799999 -8.9949999 -1.808 0.30000001
-0.259 -8.9980001 -1.809 0.30000001
-0.245 -8.9980001 -1.809 0.28999999
-0.21699999 -9.0050001 -1.8099999 0.27000001
-0.189 -8.9980001 -1.808 0.27000001
-0.16 -8.9960003 -1.808 0.28999999
-0.132 -9.0030003 -1.809 0.28
-0.104 -9.0030003 -1.809 0.28999999
-0.075999998 -9.0030003 -1.809 0.28
-0.046999998 -9.0109997 -1.811 0.28999999
-0.033 -9.0209999 -1.813 0.28999999
-0.0049999999 -9.0249996 -1.814 0.28999999
0.023 -9.033 -1.8150001 0.34
0.052000001 -9.0209999 -1.813 0.28
0.079999998 -9.0310001 -1.8150001 0.19
0.109 -9.0459995 -1.818 0.25999999
0.13699999 -9.0360003 -1.816 0.2
0.15099999 -9.0200005 -1.813 0.18000001
0.18000001 -9.0600004 -1.822 0.28999999
0.208 -9.052 -1.8200001 0.23
0.237 -9.0550003 -1.821 0.2
0.266 -9.0740004 -1.825 0.23999999
0.294 -9.0500002 -1.8200001 0.18000001
0.32300001 -9.0819998 -1.827 0.23
0.33700001 -9.066 -1.824 0.18000001
0.36700001 -9.1040001 -1.832 0.23
0.39500001 -9.0790005 -1.827 0.18000001
0.42399999 -9.099 -1.832 0.23
0.45300001 -9.092 -1.831 0.19
0.48100001 -9.0930004 -1.831 0.23
0.50999999 -9.0869999 -1.83 0.19
0.52499998 -9.0979996 -1.8329999 0.22
0.55199999 -9.0790005 -1.829 0.23
0.58200002 -9.0950003 -1.8329999 0.25
0.60900003 -9.0670004 -1.827 0.19
0.63999999 -9.1120005 -1.837 0.28
0.66799998 -9.0930004 -1.8329999 0.23
0.69499999 -9.073 -1.83 0.16
0.71200001 -9.1070004 -1.837 0.28999999
0.73900002 -9.0889997 -1.834 0.25
0.76800001 -9.092 -1.835 0.25999999
0.79699999 -9.0959997 -1.836 0.27000001
0.82599998 -9.0970001 -1.837 0.27000001
0.85600001 -9.1040001 -1.839 0.28
0.884 -9.0979996 -1.8380001 0.25
0.89899999 -9.1059999 -1.841 0.25999999
0.92799997 -9.099 -1.84 0.28
0.95700002 -9.1079998 -1.842 0.27000001
0.986 -9.1070004 -1.8430001 0.27000001
1.017 -9.125 -1.847 0.27000001
1.046 -9.1199999 -1.847 0.27000001
1.074 -9.1110001 -1.846 0.27000001
1.0880001 -9.1110001 -1.846 0.28
1.118 -9.1169996 -1.848 0.28999999
1.146 -9.1079998 -1.847 0.28999999
1.175 -9.1079998 -1.848 0.28999999
1.202 -9.0950003 -1.846 0.30000001
1.232 -9.1000004 -1.848 0.28999999
1.261 -9.0979996 -1.848 0.27000001
1.279 -9.1219997 -1.854 0.28999999
1.307 -9.1140003 -1.853 0.27000001
1.336 -9.1120005 -1.853 0.28999999
1.364 -9.1049995 -1.853 0.27000001
1.3940001 -9.1090002 -1.854 0.28999999
1.423 -9.1059999 -1.855 0.28999999
1.4529999 -9.1090002 -1.857 0.30000001
1.4680001 -9.1129999 -1.858 0.31999999
1.497 -9.1079998 -1.858 0.28999999
1.524 -9.0939999 -1.8559999 0.31
1.553 -9.0930004 -1.857 0.33000001
1.581 -9.0819998 -1.855 0.25999999
1.609 -9.0790005 -1.8559999 0.2
1.178 -6.5640001 -1.308 0.28
1.184 -6.5430002 -1.304 0.51999998
1.202 -6.5219998 -1.3 0.49000001
1.225 -6.5349998 -1.304 0.57999998
1.2410001 -6.5079999 -1.299 0.56999999
1.263 -6.5120001 -1.3 0.51999998
1.2869999 -6.5219998 -1.303 0.5
1.304 -6.5019999 -1.3 0.41999999
1.341 -6.6279998 -1.3279999 0.43000001
1.368 -6.6550002 -1.335 0.46000001
1.3890001 -6.652 -1.335 0.54000002
1.441 -6.7930002 -1.367 0.38999999
1.9809999 -9.151 -1.886 0.23999999
2.0079999 -9.1379995 -1.885 0.27000001
2.0309999 -9.1059999 -1.8789999 0.18000001
2.059 -9.1639996 -1.893 0.28999999
2.0840001 -9.1409998 -1.8890001 0.25
2.1140001 -9.1400003 -1.89 0.23
2.1429999 -9.1350002 -1.891 0.25
2.1589999 -9.0749998 -1.8789999 0.25
2.187 -9.066 -1.878 0.25999999
2.217 -9.0649996 -1.88 0.27000001
2.2290001 -9.0500002 -1.877 0.27000001
2.2579999 -9.0469999 -1.878 0.25
2.2809999 -9.0190001 -1.873 0.23
2.3139999 -9.0290003 -1.877 0.31999999
2.339 -9.0080004 -1.874 0.28
2.3699999 -9.0120001 -1.877 0.40000001
2.392 -8.9799995 -1.8710001 0.31999999
2.404 -8.9689999 -1.87 0.34
2.4330001 -8.967 -1.8710001 0.36000001
2.4530001 -8.927 -1.864 0.36000001
2.4779999 -8.9099998 -1.862 0.34
2.51 -8.915 -1.865 0.36000001
2.533 -8.8900003 -1.8609999 0.38999999
2.562 -8.8879995 -1.862 0.36000001
2.575 -8.8800001 -1.8609999 0.33000001
2.598 -8.8549995 -1.857 0.31999999
2.6240001 -8.8409996 -1.8559999 0.34999999
2.652 -8.8330002 -1.8559999 0.31999999
2.6719999 -8.8000002 -1.851 0.37
2.701 -8.7959995 -1.852 0.34999999
2.7260001 -8.7779999 -1.849 0.33000001
2.733 -8.7530003 -1.845 0.34999999
2.7639999 -8.7539997 -1.847 0.31999999
2.789 -8.7379999 -1.845 0.38
2.809 -8.7060003 -1.84 0.34
2.8399999 -8.7089996 -1.8430001 0.38
2.8610001 -8.6809998 -1.8380001 0.34
2.888 -8.6700001 -1.8380001 0.34
2.8989999 -8.658 -1.836 0.31999999
2.9260001 -8.6490002 -1.836 0.34999999
2.947 -8.6210003 -1.832 0.37
2.9749999 -8.6160002 -1.8329999 0.31999999
3.0009999 -8.6029997 -1.832 0.36000001
3.027 -8.5909996 -1.832 0.33000001
3.0510001 -8.573 -1.83 0.34
3.062 -8.5609999 -1.8279999 0.31999999
3.0910001 -8.5559998 -1.829 0.38999999
3.1199999 -8.552 -1.831 0.36000001
3.1400001 -8.526 -1.827 0.33000001
3.168 -8.5200005 -1.8279999 0.33000001
3.194 -8.5059996 -1.827 0.34999999
3.2160001 -8.4829998 -1.824 0.34
3.2249999 -8.467 -1.821 0.31999999
3.2449999 -8.4399996 -1.818 0.34
3.2709999 -8.4280005 -1.817 0.34
3.296 -8.4160004 -1.817 0.34
3.3180001 -8.3929996 -1.814 0.31999999
3.335 -8.3610001 -1.809 0.41
3.362 -8.3520002 -1.809 0.38999999
3.372 -8.3380003 -1.807 0.31999999
3.398 -8.3269997 -1.807 0.37
3.421 -8.309 -1.8049999 0.34
3.444 -8.2910004 -1.804 0.34
3.4660001 -8.2709999 -1.802 0.34
3.4909999 -8.257 -1.801 0.34999999
3.517 -8.2460003 -1.801 0.34
3.5179999 -8.2130003 -1.794 0.33000001
3.5420001 -8.1969995 -1.793 0.34
3.566 -8.184 -1.793 0.37
3.5899999 -8.1669998 -1.791 0.36000001
3.6110001 -8.1450005 -1.789 0.33000001
3.6389999 -8.1389999 -1.79 0.37
3.658 -8.1149998 -1.7869999 0.33000001
3.6659999 -8.099 -1.785 0.34
3.691 -8.0860004 -1.784 0.37
3.711 -8.0620003 -1.781 0.36000001
3.733 -8.0450001 -1.78 0.36000001
3.75 -8.0129995 -1.776 0.31999999
3.776 -8.0030003 -1.776 0.34999999
3.8 -7.9899998 -1.776 0.38
3.806 -7.9710002 -1.773 0.36000001
3.825 -7.947 -1.77 0.34999999
3.849 -7.9310002 -1.7690001 0.33000001
3.8740001 -7.9190001 -1.7690001 0.34
3.8889999 -7.888 -1.7640001 0.31999999
3.9200001 -7.888 -1.767 0.37
3.944 -7.8740001 -1.767 0.34999999
3.944 -7.8429999 -1.761 0.33000001
3.9690001 -7.8319998 -1.761 0.34999999
3.99 -7.8130002 -1.76 0.34
4.0120001 -7.7950001 -1.758 0.34
4.0370002 -7.7839999 -1.7589999 0.38
4.0580001 -7.7649999 -1.757 0.31
4.0770001 -7.7410002 -1.755 0.36000001
4.0879998 -7.7329998 -1.7539999 0.38
4.1129999 -7.7220001 -1.755 0.34999999
4.1350002 -7.704 -1.753 0.31999999
4.1539998 -7.6820002 -1.751 0.38
4.1789999 -7.6690001 -1.751 0.34
4.204 -7.658 -1.752 0.34
4.2199998 -7.631 -1.748 0.30000001
4.2340002 -7.6279998 -1.749 0.34
4.2600002 -7.618 -1.75 0.37
4.2789998 -7.5960002 -1.748 0.36000001
4.2940001 -7.5669999 -1.744 0.31
4.3169999 -7.552 -1.744 0.38
4.335 -7.5279999 -1.7410001 0.31999999
4.3670001 -7.5300002 -1.745 0.37
4.375 -7.5159998 -1.743 0.34999999
4.3930001 -7.494 -1.7410001 0.34999999
4.4180002 -7.4819999 -1.742 0.34999999
4.4460001 -7.4749999 -1.743 0.36000001
4.4559999 -7.4390001 -1.738 0.31
4.4819999 -7.4299998 -1.739 0.34
4.5079999 -7.4190001 -1.74 0.36000001
4.5100002 -7.3969998 -1.7359999 0.38
4.5320001 -7.381 -1.7359999 0.33000001
4.5570002 -7.3699999 -1.7359999 0.33000001
4.572 -7.342 -1.733 0.34999999
4.6030002 -7.3400002 -1.7359999 0.33000001
4.6230001 -7.3200002 -1.735 0.34
4.6389999 -7.296 -1.732 0.34
4.652 -7.29 -1.733 0.36000001
4.6760001 -7.277 -1.733 0.34
4.691 -7.2509999 -1.73 0.34
4.7140002 -7.2360001 -1.73 0.31
4.7340002 -7.2179999 -1.729 0.37
4.75 -7.1929998 -1.727 0.31999999
4.7690001 -7.1719999 -1.725 0.33000001
4.7789998 -7.1630001 -1.725 0.31999999
4.7969999 -7.1409998 -1.723 0.31999999
4.822 -7.1290002 -1.724 0.34
4.8340001 -7.0999999 -1.72 0.33000001
4.862 -7.092 -1.722 0.34999999
4.882 -7.0739999 -1.721 0.34
4.9039998 -7.059 -1.721 0.33000001
4.9050002 -7.0359998 -1.7180001 0.33000001
4.927 -7.0209999 -1.7180001 0.31
4.948 -7.0040002 -1.717 0.38
4.967 -6.9840002 -1.716 0.34999999
4.9860001 -6.9650002 -1.715 0.34
5.006 -6.9460001 -1.714 0.34
5.026 -6.9289999 -1.714 0.31999999
5.04 -6.9239998 -1.715 0.31999999
5.0650001 -6.9130001 -1.716 0.38
5.0749998 -6.881 -1.712 0.31
5.098 -6.8670001 -1.712 0.31999999
5.125 -6.8579998 -1.714 0.40000001
5.132 -6.823 -1.709 0.31
5.1539998 -6.8070002 -1.709 0.33000001
5.1669998 -6.802 -1.71 0.33000001
5.1919999 -6.7909999 -1.711 0.33000001
5.2150002 -6.777 -1.712 0.34
5.2280002 -6.75 -1.709 0.33000001
5.2519999 -6.737 -1.71 0.33000001
5.2680001 -6.7140002 -1.7079999 0.33000001
5.2859998 -6.6929998 -1.707 0.33000001
5.3049998 -6.6950002 -1.71 0.34999999
5.3239999 -6.677 -1.71 0.31999999
5.342 -6.6560001 -1.7079999 0.34999999
5.3530002 -6.6269999 -1.705 0.28
5.3670001 -6.6020002 -1.7029999 0.31999999
5.3870001 -6.5840001 -1.702 0.34999999
5.4060001 -6.566 -1.702 0.52999997
5.4219999 -6.5630002 -1.704 0.38999999
5.441 -6.5450001 -1.7029999 0.34
5.4499998 -6.5139999 -1.7 0.31
5.4819999 -6.5100002 -1.7029999 0.37
5.493 -6.4829998 -1.7 0.34
5.5159998 -6.4679999 -1.701 0.37
5.5300002 -6.4439998 -1.699 0.31
5.5450001 -6.441 -1.701 0.31999999
5.5630002 -6.4200001 -1.7 0.31999999
5.5830002 -6.4029999 -1.7 0.37
5.5960002 -6.3759999 -1.697 0.30000001
5.618 -6.362 -1.698 0.33000001
5.6409998 -6.3470001 -1.699 0.34999999
5.6550002 -6.323 -1.697 0.34
5.6690001 -6.3189998 -1.699 0.38999999
5.677 -6.2880001 -1.6950001 0.30000001
5.6880002 -6.2600002 -1.692 0.27000001
5.7140002 -6.2490001 -1.694 0.25999999
5.7309999 -6.2280002 -1.693 0.56
5.7579999 -6.2189999 -1.696 0.38999999
5.7729998 -6.1950002 -1.694 0.33000001
5.776 -6.1789999 -1.692 0.34
5.7950001 -6.1609998 -1.692 0.34999999
5.8119998 -6.1399999 -1.691 0.33000001
5.8400002 -6.131 -1.694 0.38999999
5.8509998 -6.105 -1.692 0.34
5.8759999 -6.092 -1.693 0.34
5.8979998 -6.0760002 -1.694 0.34999999
5.902 -6.0609999 -1.692 0.36000001
5.9099998 -6.0310001 -1.689 0.34
5.9320002 -6.0159998 -1.6900001 0.33000001
5.9569998 -6.0040002 -1.692 0.36000001
5.9650002 -5.974 -1.689 0.33000001
5.987 -5.9580002 -1.689 0.33000001
6.0029998 -5.9369998 -1.689 0.34999999
6.006 -5.9219999 -1.687 0.30000001
6.0250001 -5.9029999 -1.687 0.34
6.0500002 -5.8909998 -1.689 0.40000001
6.059 -5.862 -1.686 0.31
6.0749998 -5.8400002 -1.6849999 0.31
6.099 -5.8270001 -1.687 0.40000001
6.1139998 -5.8049998 -1.686 0.31999999
6.125 -5.796 -1.687 0.34
6.1440001 -5.7779999 -1.687 0.31999999
6.165 -5.7620001 -1.688 0.37
6.1719999 -5.7319999 -1.684 0.31
6.1939998 -5.7160001 -1.686 0.38
6.2080002 -5.6929998 -1.684 0.36000001
6.223 -5.671 -1.684 0.33000001
6.2340002 -5.664 -1.684 0.36000001
6.2509999 -5.6430001 -1.684 0.38999999
6.27 -5.6240001 -1.684 0.36000001
6.2849998 -5.6020002 -1.684 0.34
6.2979999 -5.5780001 -1.682 0.34
6.3150001 -5.559 -1.682 0.31999999
6.3309999 -5.5370002 -1.682 0.33000001
6.3400002 -5.527 -1.682 0.34
6.3600001 -5.5100002 -1.683 0.31999999
6.3730001 -5.4860001 -1.682 0.34
6.3990002 -5.474 -1.684 0.33000001
6.4159999 -5.454 -1.684 0.33000001
6.4239998 -5.4260001 -1.682 0.31999999
6.441 -5.4060001 -1.682 0.34
6.4499998 -5.3959999 -1.682 0.31999999
6.4590001 -5.369 -1.679 0.34999999
6.4809999 -5.3520002 -1.681 0.36000001
6.5019999 -5.336 -1.682 0.34999999
6.5170002 -5.3140001 -1.682 0.33000001
6.5419998 -5.3000002 -1.684 0.18000001
6.5440001 -5.2680001 -1.6799999 0.58999997
6.5560002 -5.2600002 -1.681 0.40000001
6.566 -5.2350001 -1.679 0.31999999
6.5890002 -5.2189999 -1.681 0.34
6.6030002 -5.197 -1.6799999 0.34
6.6199999 -5.1760001 -1.6799999 0.34
6.6360002 -5.1550002 -1.6799999 0.38
6.6490002 -5.132 -1.679 0.33000001
6.6599998 -5.1240001 -1.6799999 0.34
6.6729999 -5.1009998 -1.679 0.33000001
6.691 -5.0809999 -1.6799999 0.30000001
6.7080002 -5.0609999 -1.6799999 0.34
6.73 -5.0450001 -1.682 0.34
6.743 -5.0209999 -1.681 0.37
6.7649999 -5.0050001 -1.683 0.34
6.7729998 -4.994 -1.683 0.34999999
6.7849998 -4.9699998 -1.682 0.33000001
6.7979999 -4.947 -1.681 0.34
6.823 -4.9320002 -1.684 0.34
6.8340001 -4.9070001 -1.682 0.34
6.855 -4.8899999 -1.684 0.38
6.869 -4.868 -1.684 0.34999999
6.8800001 -4.8590002 -1.684 0.36000001
6.8930001 -4.836 -1.684 0.34999999
6.9099998 -4.816 -1.684 0.34
6.9190001 -4.79 -1.683 0.36000001
6.9390001 -4.7709999 -1.684 0.34999999
6.9489999 -4.7459998 -1.683 0.34
6.9650002 -4.7249999 -1.683 0.34
6.9650002 -4.7090001 -1.681 0.33000001
6.9879999 -4.6919999 -1.683 0.34
7.006 -4.6729999 -1.684 0.34
7.0089998 -4.6430001 -1.681 0.31999999
7.0279999 -4.6240001 -1.682 0.34
7.0430002 -4.6020002 -1.682 0.33000001
7.0549998 -4.579 -1.682 0.31999999
7.0580001 -4.5650001 -1.681 0.31999999
7.072 -4.5430002 -1.681 0.31999999
7.0780001 -4.5149999 -1.679 0.31999999
7.0869999 -4.4899998 -1.677 0.33000001
7.1059999 -4.4699998 -1.679 0.28999999
7.1170001 -4.4460001 -1.678 0.38
7.1290002 -4.4229999 -1.677 0.33000001
7.1329999 -4.4089999 -1.676 0.34999999
7.152 -4.3899999 -1.678 0.30000001
7.1589999 -4.3639998 -1.676 0.36000001
7.1690001 -4.3390002 -1.675 0.36000001
7.191 -4.3210001 -1.677 0.40000001
7.198 -4.2950001 -1.676 0.36000001
7.2150002 -4.2740002 -1.676 0.38999999
7.2160001 -4.2600002 -1.675 0.31999999
7.2309999 -4.2379999 -1.676 0.34999999
7.2399998 -4.2129998 -1.674 0.33000001
7.2610002 -4.1950002 -1.676 0.37
7.276 -4.1729999 -1.677 0.36000001
7.2870002 -4.1490002 -1.676 0.36000001
7.2919998 -4.1209998 -1.674 0.31999999
7.309 -4.1149998 -1.677 0.34
7.3179998 -4.0910001 -1.676 0.34
7.3379998 -4.0710001 -1.678 0.36000001
7.3540001 -4.0500002 -1.679 0.41
7.3629999 -4.0250001 -1.678 0.34999999
7.3740001 -4.0009999 -1.677 0.36000001
7.381 -3.9749999 -1.676 0.33000001
7.3979998 -3.9690001 -1.679 0.38999999
7.4039998 -3.9419999 -1.677 0.31999999
7.4229999 -3.9230001 -1.679 0.37
7.428 -3.8959999 -1.677 0.34999999
7.447 -3.8759999 -1.679 0.31
7.4590001 -3.852 -1.679 0.34
7.4819999 -3.8340001 -1.681 0.38
7.4790001 -3.8180001 -1.679 0.36000001
7.4889998 -3.7939999 -1.679 0.31999999
7.5009999 -3.77 -1.679 0.37
7.513 -3.747 -1.679 0.36000001
7.5250001 -3.723 -1.679 0.33000001
7.5380001 -3.7 -1.679 0.38
7.5450001 -3.674 -1.678 0.36000001
7.5560002 -3.665 -1.679 0.36000001
7.5619998 -3.638 -1.678 0.36000001
7.573 -3.6140001 -1.678 0.36000001
7.5900002 -3.5929999 -1.679 0.34999999
7.598 -3.5680001 -1.678 0.34
7.6090002 -3.5439999 -1.678 0.36000001
7.6199999 -3.52 -1.678 0.31999999
7.6220002 -3.506 -1.677 0.34
7.6399999 -3.4860001 -1.679 0.34999999
7.6469998 -3.46 -1.678 0.36000001
7.6560001 -3.4349999 -1.678 0.36000001
7.6599998 -3.408 -1.676 0.34
7.6739998 -3.385 -1.677 0.33000001
7.6869998 -3.362 -1.677 0.41
7.7030001 -3.355 -1.6799999 0.37
7.7059999 -3.3269999 -1.678 0.33000001
7.7220001 -3.3050001 -1.679 0.34
7.7340002 -3.2820001 -1.6799999 0.36000001
7.7420001 -3.257 -1.679 0.34
7.743 -3.2290001 -1.677 0.36000001
7.7550001 -3.2049999 -1.678 0.36000001
7.7589998 -3.1919999 -1.677 0.36000001
7.7810001 -3.1730001 -1.6799999 0.38
7.7779999 -3.1429999 -1.677 0.36000001
7.8010001 -3.1240001 -1.6799999 0.36000001
7.8049998 -3.0969999 -1.679 0.31999999
7.822 -3.076 -1.681 0.34
7.8319998 -3.0510001 -1.681 0.36000001
7.835 -3.0380001 -1.6799999 0.23
7.8429999 -3.013 -1.6799999 0.38
7.848 -2.987 -1.679 0.56
7.8649998 -2.9649999 -1.681 0.34999999
7.8829999 -2.9430001 -1.683 0.38
7.8800001 -2.914 -1.6799999 0.34
7.8940001 -2.891 -1.681 0.34999999
7.888 -2.875 -1.679 0.34999999
7.908 -2.8540001 -1.681 0.34999999
7.9130001 -2.8280001 -1.6799999 0.31
7.9239998 -2.803 -1.681 0.34
7.9359999 -2.78 -1.682 0.34
7.9559999 -2.7590001 -1.684 0.36000001
7.9520001 -2.7290001 -1.681 0.36000001
7.9689999 -2.721 -1.684 0.38
7.9660001 -2.6919999 -1.682 0.37
7.973 -2.6670001 -1.681 0.34
7.993 -2.645 -1.684 0.34
7.9970002 -2.619 -1.683 0.34
8 -2.592 -1.682 0.34999999
8.0229998 -2.572 -1.6849999 0.38
8.0229998 -2.5580001 -1.684 0.31999999
8.04 -2.536 -1.686 0.38
8.0430002 -2.5090001 -1.6849999 0.33000001
8.0640001 -2.487 -1.688 0.36000001
8.0640001 -2.46 -1.686 0.40000001
8.0830002 -2.438 -1.689 0.33000001
8.0869999 -2.411 -1.688 0.38
8.0939999 -2.4000001 -1.689 0.36000001
8.092 -2.3710001 -1.687 0.31999999
8.1070004 -2.348 -1.688 0.36000001
8.1239996 -2.325 -1.6900001 0.38999999
8.1330004 -2.3 -1.691 0.36000001
8.1400003 -2.2750001 -1.691 0.34999999
8.1490002 -2.25 -1.691 0.33000001
8.1569996 -2.2379999 -1.692 0.36000001
8.158 -2.211 -1.691 0.36000001
8.1719999 -2.187 -1.692 0.37
8.177 -2.161 -1.692 0.36000001
8.1859999 -2.1359999 -1.692 0.36000001
8.191 -2.1099999 -1.692 0.33000001
8.2010002 -2.085 -1.693 0.34
8.1990004 -2.0699999 -1.692 0.31999999
8.1789999 -2.0380001 -1.686 0.18000001
8.0860004 -1.988 -1.664 0.18000001
7.0120001 -1.705 -1.425 0.18000001
8.2580004 -1.975 -1.699 0.34
8.2510004 -1.946 -1.696 0.25999999
8.2720003 -1.924 -1.7 0.30000001
8.3059998 -1.918 -1.706 0.43000001
8.3269997 -1.895 -1.71 0.44
7.277 -1.635 -1.478 0.31999999
8.2889996 -1.832 -1.699 0.25
8.2950001 -1.806 -1.699 0.25
8.3100004 -1.7819999 -1.701 0.5
7.8280001 -1.654 -1.594 0.20999999
7.5700002 -1.5880001 -1.5369999 0.31999999
7.6170001 -1.573 -1.546 0.49000001
7.7940001 -1.5829999 -1.584 0.17
7.7649999 -1.552 -1.576 0.23999999
7.5949998 -1.494 -1.538 0.54000002
7.7090001 -1.4910001 -1.562 0.25
7.7919998 -1.4809999 -1.579 0.41
8.2639999 -1.543 -1.681 0.22
8.4110003 -1.556 -1.7130001 0.34999999
8.408 -1.528 -1.711 0.36000001
8.4069996 -1.501 -1.71 0.37
8.408 -1.474 -1.709 0.33000001
8.4180002 -1.448 -1.71 0.33000001
8.4189997 -1.421 -1.709 0.34999999
8.408 -1.392 -1.706 0.28
8.4280005 -1.382 -1.71 0.5
8.2639999 -1.329 -1.673 0.27000001
8.1040001 -1.277 -1.637 0.22
8.2550001 -1.274 -1.669 0.14
8.3590002 -1.263 -1.691 0.34
8.3900003 -1.2410001 -1.697 0.30000001
8.3979998 -1.228 -1.698 0.30000001
8.3149996 -1.1900001 -1.679 0.17
8.3299999 -1.165 -1.682 0.17
8.4049997 -1.149 -1.697 0.25999999
8.4219999 -1.124 -1.7 0.31999999
8.4320002 -1.098 -1.702 0.31999999
8.441 -1.073 -1.7029999 0.38
8.4329996 -1.058 -1.701 0.31999999
8.427 -1.03 -1.699 0.33000001
8.441 -1.005 -1.701 0.38999999
8.4329996 -0.977 -1.699 0.31999999
8.4440002 -0.95200002 -1.7 0.38
8.4329996 -0.92400002 -1.697 0.31
8.4420004 -0.898 -1.699 0.38
8.4370003 -0.884 -1.697 0.31999999
8.4379997 -0.85699999 -1.697 0.31999999
8.4350004 -0.82999998 -1.696 0.31999999
8.441 -0.80400002 -1.697 0.31999999
8.4379997 -0.77700001 -1.6950001 0.33000001
8.4379997 -0.75 -1.6950001 0.31999999
8.4370003 -0.72399998 -1.694 0.33000001
8.4320002 -0.70999998 -1.693 0.31999999
8.4379997 -0.68400002 -1.694 0.33000001
8.4519997 -0.65799999 -1.696 0.34
8.4499998 -0.63099998 -1.6950001 0.31999999
8.4399996 -0.60399997 -1.693 0.33000001
8.4359999 -0.57700002 -1.692 0.34
8.4440002 -0.551 -1.693 0.34999999
8.4370003 -0.537 -1.691 0.34999999
8.448 -0.51099998 -1.693 0.34
8.4460001 -0.484 -1.692 0.36000001
8.4460001 -0.458 -1.692 0.34
8.4280005 -0.43000001 -1.688 0.31
8.4420004 -0.40400001 -1.691 0.34
8.4219999 -0.377 -1.686 0.36000001
8.4289999 -0.36399999 -1.687 0.34
8.4300003 -0.338 -1.687 0.36000001
8.427 -0.31099999 -1.687 0.36000001
8.4300003 -0.285 -1.687 0.38999999
8.4250002 -0.25799999 -1.686 0.34999999
8.4309998 -0.23199999 -1.687 0.34999999
8.4239998 -0.205 -1.6849999 0.36000001
8.4250002 -0.192 -1.6849999 0.36000001
8.4189997 -0.16500001 -1.684 0.33000001
8.4139996 -0.139 -1.683 0.33000001
8.4259996 -0.112 -1.6849999 0.38999999
8.415 -0.086000003 -1.683 0.30000001
8.4130001 -0.059 -1.682 0.31999999
8.4110003 -0.033 -1.682 0.34
8.4189997 -0.02 -1.684 0.38
8.1079998 0.0099999998 -1.683 0.31
8.1020002 0.035999998 -1.682 0.31
8.1020002 0.061000001 -1.682 0.31
8.0959997 0.074000001 -1.681 0.28999999
8.1149998 0.1 -1.6849999 0.38999999
8.0889997 0.125 -1.679 0.30000001
8.1000004 0.15000001 -1.682 0.33000001
8.0939999 0.176 -1.681 0.31999999
8.0930004 0.20100001 -1.681 0.31999999
8.085 0.214 -1.679 0.31999999
8.085 0.23899999 -1.679 0.28999999
8.0950003 0.26499999 -1.682 0.37
8.0830002 0.28999999 -1.679 0.31
8.0740004 0.315 -1.677 0.31999999
8.0830002 0.34099999 -1.679 0.34
8.0799999 0.366 -1.679 0.33000001
8.0629997 0.391 -1.676 0.25999999
8.066 0.40400001 -1.676 0.34
8.0690002 0.42899999 -1.677 0.43000001
8.0670004 0.454 -1.677 0.34
8.0539999 0.479 -1.675 0.34
8.059 0.505 -1.676 0.34
8.0489998 0.52999997 -1.674 0.34
8.0530005 0.55500001 -1.676 0.33000001
8.0489998 0.56800002 -1.675 0.31999999
8.0530005 0.59299999 -1.676 0.36000001
8.0369997 0.61799997 -1.673 0.28999999
8.0369997 0.64300001 -1.673 0.31
8.033 0.66799998 -1.673 0.31
8.0249996 0.69300002 -1.6720001 0.30000001
8.0229998 0.71799999 -1.6720001 0.34999999
8.0159998 0.73000002 -1.67 0.31999999
8.0139999 0.755 -1.67 0.31999999
8.0190001 0.78100002 -1.6720001 0.33000001
8.0010004 0.80500001 -1.669 0.28
8.0059996 0.83099997 -1.67 0.31999999
7.9920001 0.85500002 -1.668 0.31
8.0030003 0.88099998 -1.671 0.34
7.9970002 0.89399999 -1.67 0.31999999
7.9850001 0.91799998 -1.668 0.28
7.9899998 0.94400001 -1.669 0.34
7.9829998 0.96799999 -1.669 0.31999999
7.9720001 0.99199998 -1.6670001 0.30000001
7.973 1.018 -1.668 0.28999999
7.9689999 1.043 -1.668 0.30000001
7.9749999 1.056 -1.669 0.34999999
7.9720001 1.081 -1.669 0.28
7.9629998 1.1059999 -1.668 0.31
7.9590001 1.131 -1.668 0.28999999
7.9499998 1.155 -1.6670001 0.33000001
7.9439998 1.1799999 -1.666 0.31
7.9310002 1.2029999 -1.664 0.30000001
7.9390001 1.217 -1.666 0.28999999
7.9390001 1.242 -1.6670001 0.34
7.9330001 1.267 -1.6670001 0.31
7.927 1.2920001 -1.666 0.28999999
7.9229999 1.317 -1.666 0.33000001
7.9029999 1.339 -1.663 0.33000001
7.9070001 1.365 -1.665 0.30000001
7.8990002 1.377 -1.663 0.31
7.8909998 1.401 -1.663 0.30000001
7.8839998 1.425 -1.6619999 0.28
7.8800001 1.45 -1.6619999 0.28999999
7.8769999 1.475 -1.663 0.28
7.8699999 1.499 -1.6619999 0.27000001
7.8660002 1.524 -1.6619999 0.28999999
7.8540001 1.535 -1.66 0.28
7.8470001 1.559 -1.659 0.28999999
7.8499999 1.585 -1.661 0.27000001
7.8410001 1.609 -1.66 0.30000001
7.8379998 1.6339999 -1.661 0.28
7.829 1.658 -1.66 0.28999999
7.8309999 1.684 -1.6619999 0.28999999
7.8260002 1.696 -1.661 0.28999999
7.8270001 1.722 -1.663 0.28
7.8210001 1.7460001 -1.663 0.27000001
7.8119998 1.77 -1.6619999 0.28
7.8099999 1.795 -1.663 0.28999999
7.8010001 1.819 -1.6619999 0.28999999
7.803 1.845 -1.663 0.28
7.802 1.858 -1.664 0.28999999
7.79 1.881 -1.663 0.28999999
7.7859998 1.906 -1.663 0.28
7.7649999 1.927 -1.659 0.31
7.783 1.957 -1.665 0.25999999
7.7680001 1.979 -1.663 0.28
7.7690001 2.006 -1.665 0.30000001
7.7750001 2.02 -1.6670001 0.30000001
7.7589998 2.0420001 -1.665 0.25999999
7.7610002 2.069 -1.666 0.31
