# .PCD v0.7 - Point Cloud Data file format
VERSION 0.7
FIELDS x y z intensity
SIZE 4 4 4 4
TYPE F F F F
COUNT 1 1 1 1
WIDTH 1411
HEIGHT 1
VIEWPOINT 0 0 0 1 0 0 0
POINTS 1411
DATA ascii
-7.7620001 6.6760001 -1.858 0.079999998
-7.7750001 6.645 -1.8559999 0.090000004
-7.802 6.6259999 -1.857 0.079999998
-7.8210001 6.5999999 -1.857 0.090000004
-7.8210001 6.579 -1.854 0.079999998
-7.8520002 6.5630002 -1.857 0.079999998
-7.8699999 6.5359998 -1.8559999 0.079999998
-7.881 6.5029998 -1.854 0.079999998
-7.9000001 6.4770002 -1.853 0.16
-7.9180002 6.4499998 -1.853 0.039999999
-7.9349999 6.4229999 -1.852 0.079999998
-7.9559999 6.3990002 -1.852 0.16
-7.9650002 6.3850002 -1.852 0.039999999
-7.9829998 6.3590002 -1.852 0.07
-7.9920001 6.3249998 -1.849 0.039999999
-8.0170002 6.3039999 -1.85 0.07
-8.0410004 6.2820001 -1.851 0.039999999
-8.0530005 6.2509999 -1.849 0.07
-8.0620003 6.217 -1.847 0.039999999
-8.0760002 6.2080002 -1.848 0
-8.1009998 6.1859999 -1.849 0
-8.1140003 6.1560001 -1.847 0
-8.1520004 6.145 -1.852 0
-8.1429996 6.098 -1.845 0
-8.1700001 6.0780001 -1.847 0
-8.1890001 6.052 -1.847 0
-8.2060003 6.0450001 -1.849 0
-8.2250004 6.02 -1.849 0
-8.2410002 5.9910002 -1.848 0
-8.2530003 5.961 -1.847 0
-8.25 5.9190001 -1.841 0.039999999
-5.8649998 4.1900001 -1.271 0.090000004
-5.8800001 4.1719999 -1.271 0.2
-5.8509998 4.138 -1.263 0.14
-5.8850002 4.1339998 -1.268 0.28999999
-5.8920002 4.112 -1.267 0.25
-5.9029999 4.092 -1.266 0.15000001
-5.9369998 4.0879998 -1.271 0.07
-5.9629998 4.0780001 -1.274 0
-8.4519997 5.7280002 -1.852 0
-8.4610004 5.7150002 -1.852 0
-8.4899998 5.6960001 -1.855 0
-8.5059996 5.6680002 -1.855 0
-8.5179996 5.6370001 -1.853 0
-8.5439997 5.6160002 -1.855 0
-8.5629997 5.5900002 -1.855 0
-8.5790005 5.5619998 -1.855 0
-8.5860004 5.5289998 -1.853 0
-8.592 5.513 -1.852 0
-8.6059999 5.4840002 -1.851 0
-6.1529999 3.9030001 -1.286 0.090000004
-6.1539998 3.8759999 -1.284 0.050000001
-6.1729999 3.8610001 -1.285 0
-8.684 5.382 -1.853 0
-8.6960001 5.3509998 -1.852 0
-8.7060003 5.3390002 -1.853 0
-8.7270002 5.3140001 -1.854 0
-8.7390003 5.2839999 -1.853 0
-8.7489996 5.2519999 -1.851 0
-8.7770004 5.2319999 -1.854 0
-8.783 5.198 -1.852 0
-8.8050003 5.1739998 -1.853 0
-8.8330002 5.1719999 -1.857 0
-8.8409996 5.1389999 -1.855 0
-8.8570004 5.1110001 -1.855 0
-8.882 5.0879998 -1.857 0
-8.882 5.0510001 -1.854 0
-8.9049997 5.027 -1.855 0
-8.9119997 4.9949999 -1.853 0
-8.9280005 4.967 -1.853 0
-8.9289999 4.9489999 -1.852 0
-8.9530001 4.9250002 -1.854 0
-8.9659996 4.8959999 -1.853 0
-8.9610004 4.8569999 -1.849 0
-8.9949999 4.8390002 -1.853 0
-8.9829998 4.796 -1.847 0
-9.0150003 4.777 -1.851 0
-9.007 4.7540002 -1.847 0
-9.0389996 4.7350001 -1.851 0
-9.0419998 4.6999998 -1.849 0
-9.0459995 4.6669998 -1.846 0
-9.059 4.6370001 -1.846 0
-9.0979996 4.6209998 -1.851 0
-9.0760002 4.5739999 -1.8430001 0
-9.0900002 4.5630002 -1.845 0
-9.0970001 4.5310001 -1.8430001 0.029999999
-9.1239996 4.5089998 -1.846 0.029999999
-9.1289997 4.4759998 -1.844 0.029999999
-9.1459999 4.4489999 -1.845 0.029999999
-9.1440001 4.4120002 -1.841 0.029999999
-9.1619997 4.3850002 -1.842 0.029999999
-9.1739998 4.3559999 -1.842 0.029999999
-9.1820002 4.342 -1.842 0.029999999
-9.1990004 4.3150001 -1.8430001 0.029999999
-9.2080002 4.2839999 -1.842 0.029999999
-9.2159996 4.2519999 -1.841 0.029999999
-9.2329998 4.2249999 -1.841 0.029999999
-9.2550001 4.1999998 -1.8430001 0.029999999
-9.2629995 4.1680002 -1.842 0.029999999
-9.2690001 4.1539998 -1.842 0.029999999
-9.2910004 4.1290002 -1.844 0
-9.2969999 4.0960002 -1.842 0
-9.3129997 4.0689998 -1.8430001 0
-9.3459997 4.0479999 -1.847 0
-9.335 4.0079999 -1.842 0
-9.3660002 3.987 -1.846 0
-9.3500004 3.9630001 -1.842 0
-9.3660002 3.9349999 -1.842 0
-9.3769999 3.905 -1.842 0
-9.3959999 3.878 -1.844 0
-9.4029999 3.8469999 -1.842 0
-9.4130001 3.816 -1.842 0
-9.4209995 3.7850001 -1.841 0
-9.4350004 3.773 -1.8430001 0
-9.4449997 3.743 -1.842 0
-9.4619999 3.7149999 -1.844 0
-9.4610004 3.681 -1.841 0
-9.4790001 3.654 -1.842 0
-9.4840002 3.6210001 -1.841 0
-9.5019999 3.5940001 -1.842 0
-9.5100002 3.5799999 -1.8430001 0
-9.5279999 3.553 -1.844 0
-9.5299997 3.5190001 -1.842 0
-9.5340004 3.487 -1.841 0
-9.552 3.4590001 -1.842 0
-9.5629997 3.4289999 -1.842 0
-9.5810003 3.402 -1.844 0
-9.5860004 3.3870001 -1.844 0
-9.6120005 3.362 -1.847 0
-9.6070004 3.3269999 -1.844 0
-9.6230001 3.2980001 -1.845 0
-9.6389999 3.27 -1.846 0
-9.6379995 3.2360001 -1.844 0
-9.658 3.2090001 -1.846 0
-9.6719999 3.1800001 -1.847 0
-9.6730003 3.1630001 -1.846 0
-9.677 3.131 -1.845 0
-9.6809998 3.099 -1.844 0
-9.7019997 3.072 -1.846 0
-9.7010002 3.0380001 -1.844 0
-9.7159996 3.0090001 -1.845 0
-9.7139997 2.9749999 -1.842 0
-9.7110004 2.9579999 -1.841 0
-9.7410002 2.9330001 -1.845 0
-9.6940002 2.8859999 -1.834 0
-8.2279997 2.4260001 -1.536 0
-8.2320004 2.3989999 -1.536 0
-8.2270002 2.369 -1.533 0
-8.2229996 2.3399999 -1.531 0
-8.0749998 2.257 -1.499 0
-8.0799999 2.2320001 -1.498 0
-8.0749998 2.2030001 -1.4960001 0
-8.0649996 2.1730001 -1.493 0
-8.0810003 2.1500001 -1.495 0.02
-8.132 2.1359999 -1.503 0.12
-8.1289997 2.108 -1.501 0
-8.0769997 2.0810001 -1.49 0
-8.0649996 2.0510001 -1.487 0
-8.0600004 2.023 -1.484 0
-8.0539999 1.995 -1.482 0
-8.0530005 1.9680001 -1.4809999 0
-8.0299997 1.936 -1.475 0
-8.026 1.921 -1.473 0
-8.0279999 1.895 -1.473 0
-8.0509996 1.874 -1.476 0
-8.0530005 1.848 -1.475 0
-8.0629997 1.823 -1.476 0
-8.0860004 1.802 -1.479 0
-8.0799999 1.774 -1.477 0
-8.0830002 1.761 -1.477 0
-8.1029997 1.739 -1.48 0
-8.1280003 1.7180001 -1.484 0
-8.1079998 1.687 -1.479 0
-8.0909996 1.6569999 -1.474 0.11
-8.1110001 1.6339999 -1.478 0.050000001
-8.1090002 1.607 -1.476 0.14
-8.1269999 1.584 -1.479 0.050000001
-8.1099997 1.568 -1.475 0.14
-8.1520004 1.549 -1.482 0.050000001
-8.1120005 1.516 -1.473 0.15000001
-8.1520004 1.4960001 -1.48 0.18000001
-8.1599998 1.471 -1.4809999 0.17
-8.1440001 1.442 -1.477 0.17
-8.1689997 1.42 -1.4809999 0.039999999
-8.1829996 1.409 -1.483 0.07
-8.1739998 1.381 -1.4809999 0.039999999
-8.1899996 1.358 -1.483 0.07
-8.2040005 1.3329999 -1.485 0.039999999
-8.2180004 1.309 -1.487 0.039999999
-8.224 1.284 -1.487 0.039999999
-8.2489996 1.261 -1.4910001 0
-8.2670002 1.237 -1.494 0
-8.2720003 1.225 -1.495 0
-8.2980003 1.202 -1.499 0
-8.3210001 1.178 -1.503 0
-8.3240004 1.152 -1.503 0
-8.3319998 1.126 -1.503 0
-8.3319998 1.1 -1.503 0
-8.3450003 1.075 -1.5039999 0
-8.3640003 1.064 -1.508 0
-8.3690004 1.038 -1.508 0
-8.3859997 1.013 -1.511 0
-8.4090004 0.98900002 -1.515 0
-8.4230003 0.96399999 -1.517 0
-8.4300003 0.93800002 -1.518 0
-8.441 0.912 -1.5190001 0
-8.4519997 0.89999998 -1.521 0
-8.4610004 0.87400001 -1.522 0
-8.5089998 0.852 -1.531 0
-8.5229998 0.82599998 -1.533 0
-10.04 0.90499997 -1.827 0
-10.041 0.87300003 -1.827 0
-10.011 0.85500002 -1.821 0
-10.047 0.82599998 -1.827 0
-10.026 0.79299998 -1.823 0
-10.038 0.76200002 -1.825 0
-10.017 0.72899997 -1.8200001 0
-10.041 0.699 -1.824 0
-10.008 0.66500002 -1.817 0
-10.046 0.65100002 -1.825 0
-10.04 0.61900002 -1.823 0
-10.007 0.58600003 -1.816 0
-10.036 0.55599999 -1.822 0
-10.026 0.52399999 -1.819 0
-10.025 0.49200001 -1.819 0
-10.005 0.46000001 -1.8150001 0
-10.034 0.42899999 -1.8200001 0
-9.9899998 0.412 -1.811 0
-10.026 0.382 -1.818 0
-9.9980001 0.34900001 -1.812 0
-10.003 0.31799999 -1.813 0
-9.9919996 0.28600001 -1.811 0
-9.9949999 0.255 -1.811 0.029999999
-9.9779997 0.223 -1.808 0.029999999
-9.9919996 0.208 -1.811 0.029999999
-9.9989996 0.176 -1.812 0.029999999
-9.9910002 0.145 -1.8099999 0.029999999
-10.013 0.114 -1.814 0.029999999
-10.021 0.082000002 -1.816 0.07
-10.022 0.050999999 -1.816 0.039999999
-10.032 0.018999999 -1.818 0.07
-10.018 0.0040000002 -1.8150001 0.039999999
-10.026 -0.028000001 -1.817 0.07
-10.029 -0.059 -1.817 0.039999999
-10.029 -0.090999998 -1.817 0.07
-10.027 -0.122 -1.817 0.039999999
-10.038 -0.154 -1.819 0.079999998
-10.022 -0.185 -1.816 0.16
-10.021 -0.21699999 -1.816 0.16
-10.019 -0.233 -1.816 0.039999999
-10.024 -0.264 -1.817 0.07
-10.015 -0.29499999 -1.8150001 0.079999998
-10.013 -0.32699999 -1.8150001 0.16
-10.002 -0.35800001 -1.813 0.16
-9.9980001 -0.389 -1.813 0.16
-9.9969997 -0.421 -1.813 0.16
-9.993 -0.43599999 -1.812 0.16
-9.9870005 -0.46700001 -1.811 0.17
-9.9879999 -0.49900001 -1.812 0.18000001
-9.9759998 -0.52999997 -1.8099999 0.16
-9.9770002 -0.56099999 -1.8099999 0.16
-9.967 -0.59200001 -1.809 0.16
-9.9549999 -0.62300003 -1.807 0.039999999
-9.9420004 -0.63700002 -1.804 0.07
-9.9399996 -0.66900003 -1.804 0.079999998
-9.9320002 -0.699 -1.803 0.090000004
-9.9160004 -0.73000002 -1.801 0.079999998
-9.9180002 -0.76099998 -1.801 0.079999998
-9.9060001 -0.79100001 -1.799 0.079999998
-9.9029999 -0.82300001 -1.799 0.079999998
-9.9060001 -0.838 -1.8 0.079999998
-9.8950005 -0.86900002 -1.799 0.16
-9.8959999 -0.89999998 -1.799 0.039999999
-9.915 -0.93300003 -1.804 0.07
-9.8959999 -0.963 -1.801 0
-9.9049997 -0.995 -1.803 0
-9.9040003 -1.027 -1.803 0
-9.8929996 -1.041 -1.801 0
-9.9200001 -1.076 -1.807 0
-9.8839998 -1.103 -1.801 0
-9.8940001 -1.136 -1.804 0
-9.875 -1.165 -1.801 0
-9.875 -1.196 -1.801 0
-9.8850002 -1.229 -1.804 0
-9.8830004 -1.26 -1.804 0
-9.8360004 -1.27 -1.796 0
-9.6739998 -1.28 -1.765 0.090000004
-9.6639996 -1.309 -1.7640001 0.090000004
-9.6560001 -1.339 -1.763 0.090000004
-9.6309996 -1.3660001 -1.7589999 0.079999998
-9.6210003 -1.396 -1.758 0.090000004
-9.6120005 -1.425 -1.757 0.090000004
-9.5979996 -1.439 -1.755 0.090000004
-9.5880003 -1.4680001 -1.753 0.090000004
-9.5780001 -1.497 -1.752 0.079999998
-9.5530005 -1.524 -1.749 0.079999998
-9.5509996 -1.554 -1.749 0.15000001
-9.5360003 -1.5829999 -1.747 0.039999999
-9.5120001 -1.609 -1.743 0.14
-9.5159998 -1.641 -1.745 0.050000001
-9.4980001 -1.653 -1.742 0.15000001
-9.5039997 -1.6849999 -1.744 0.050000001
-9.493 -1.714 -1.743 0.16
-9.4969997 -1.745 -1.745 0.2
-9.4919996 -1.775 -1.745 0.1
-9.4840002 -1.8049999 -1.745 0.15000001
-9.4610004 -1.831 -1.7410001 0.20999999
-9.441 -1.8430001 -1.738 0.15000001
-9.4549999 -1.876 -1.742 0.25999999
-9.4309998 -1.902 -1.738 0.25
-9.4289999 -1.933 -1.739 0.27000001
-9.4359999 -1.965 -1.742 0.25
-9.4049997 -1.989 -1.737 0.18000001
-9.4329996 -2.026 -1.744 0.30000001
-9.4189997 -2.039 -1.7410001 0.18000001
-9.4259996 -2.0710001 -1.744 0.059999999
-9.4060001 -2.098 -1.7410001 0.16
-9.4049997 -2.1289999 -1.742 0.050000001
-9.3850002 -2.155 -1.74 0.14
-9.3800001 -2.1849999 -1.74 0.050000001
-9.3629999 -2.2119999 -1.738 0.15000001
-9.3640003 -2.2279999 -1.739 0.050000001
-9.3570004 -2.257 -1.739 0.15000001
-9.3500004 -2.2869999 -1.739 0.19
-9.3210001 -2.3110001 -1.735 0.16
-9.3030005 -2.3369999 -1.733 0.25
-9.29 -2.365 -1.7309999 0.25
-9.2919998 -2.3970001 -1.733 0.28
-9.2939997 -2.4130001 -1.734 0.28
-9.2930002 -2.444 -1.7359999 0.25999999
-9.2670002 -2.4679999 -1.732 0.18000001
-9.3009996 -2.5079999 -1.7410001 0.30000001
-9.2950001 -2.5380001 -1.7410001 0.17
-9.2919998 -2.569 -1.742 0.050000001
-9.2609997 -2.592 -1.738 0.16
-9.2589998 -2.622 -1.739 0.050000001
-9.2510004 -2.6359999 -1.738 0.15000001
-9.25 -2.6670001 -1.739 0.050000001
-9.2360001 -2.694 -1.738 0.15000001
-9.25 -2.73 -1.743 0.19
-9.2209997 -2.753 -1.739 0.17
-9.2139997 -2.7820001 -1.739 0.18000001
-9.2089996 -2.813 -1.74 0.17
-9.2049999 -2.8269999 -1.74 0.18000001
-9.1899996 -2.8540001 -1.739 0.090000004
-9.198 -2.888 -1.742 0.090000004
-9.1680002 -2.911 -1.738 0.079999998
-9.1669998 -2.9419999 -1.739 0.090000004
-9.1669998 -2.974 -1.7410001 0.079999998
-9.1420002 -2.9979999 -1.738 0.079999998
-9.1389999 -3.013 -1.739 0.079999998
-9.1359997 -3.043 -1.74 0.079999998
-9.1199999 -3.0699999 -1.739 0.079999998
-9.1140003 -3.0999999 -1.739 0.16
-9.1160002 -3.132 -1.742 0.16
-9.085 -3.154 -1.738 0.16
-9.0810003 -3.184 -1.739 0.039999999
-9.0740004 -3.198 -1.738 0.079999998
-9.0600004 -3.2249999 -1.738 0.039999999
-9.059 -3.257 -1.739 0.07
-9.0450001 -3.2839999 -1.739 0.039999999
-9.0299997 -3.3099999 -1.738 0.07
-9.0229998 -3.3399999 -1.738 0.039999999
-9.0100002 -3.368 -1.738 0.07
-9.0019999 -3.3970001 -1.738 0.039999999
-8.9910002 -3.4089999 -1.737 0.07
-8.9799995 -3.437 -1.737 0.039999999
-8.9709997 -3.4660001 -1.738 0.07
-8.96 -3.494 -1.738 0.039999999
-8.9490004 -3.5220001 -1.738 0.07
-8.9469995 -3.5539999 -1.739 0.039999999
-8.9399996 -3.5829999 -1.74 0
-8.9390001 -3.5999999 -1.7410001 0
-8.9280005 -3.628 -1.7410001 0
-8.915 -3.655 -1.7410001 0
-8.9029999 -3.6830001 -1.7410001 0
-8.8990002 -3.714 -1.742 0
-8.8959999 -3.7460001 -1.744 0
-8.915 -3.7869999 -1.751 0
-8.8710003 -3.7850001 -1.743 0
-8.8900003 -3.826 -1.749 0
-8.8529997 -3.8429999 -1.744 0
-8.8669996 -3.882 -1.75 0
-8.8610001 -3.9119999 -1.751 0
-8.8479996 -3.9400001 -1.751 0
-8.8479996 -3.974 -1.753 0
-8.8400002 -3.987 -1.753 0
-8.8240004 -4.013 -1.752 0
-8.8149996 -4.0419998 -1.753 0
-8.8059998 -4.072 -1.7539999 0
-8.7930002 -4.099 -1.7539999 0
-8.7770004 -4.125 -1.753 0
-8.7600002 -4.151 -1.752 0
-8.7620001 -4.1690001 -1.7539999 0
-8.7510004 -4.197 -1.755 0
-8.743 -4.2270002 -1.756 0
-8.7399998 -4.2600002 -1.758 0
-8.7220001 -4.2849998 -1.757 0
-8.71 -4.3130002 -1.757 0
-8.6859999 -4.335 -1.755 0
-8.684 -4.3520002 -1.756 0
-8.6719999 -4.3800001 -1.757 0
-8.6549997 -4.4050002 -1.756 0
-8.6389999 -4.4310002 -1.755 0
-8.6309996 -4.461 -1.757 0
-8.6129999 -4.4860001 -1.756 0
-8.599 -4.5139999 -1.756 0
-8.5810003 -4.539 -1.755 0
-8.5690002 -4.5489998 -1.7539999 0
-8.5340004 -4.5650001 -1.749 0
-8.5439997 -4.605 -1.755 0
-8.5290003 -4.632 -1.755 0
-8.5109997 -4.6570001 -1.7539999 0
-8.4949999 -4.6820002 -1.753 0
-8.4829998 -4.711 -1.7539999 0
-8.4860001 -4.73 -1.757 0
-8.4440002 -4.7410002 -1.75 0
-8.4610004 -4.7859998 -1.758 0
-8.4359999 -4.8070002 -1.755 0
-8.4469995 -4.848 -1.761 0
-8.4180002 -4.8670001 -1.758 0
-8.3970003 -4.8899999 -1.757 0
-8.3959999 -4.9070001 -1.758 0
-8.3789997 -4.9330001 -1.758 0
-8.3649998 -4.96 -1.758 0
-8.3549995 -4.9889998 -1.76 0
-8.3409996 -5.0170002 -1.76 0
-8.3249998 -5.0430002 -1.76 0
-8.3190002 -5.0749998 -1.762 0
-8.309 -5.0869999 -1.762 0
-8.2869997 -5.1090002 -1.76 0
-8.2790003 -5.1399999 -1.762 0
-8.2639999 -5.1669998 -1.763 0
-8.2530003 -5.1960001 -1.7640001 0
-8.2469997 -5.2290001 -1.766 0
-8.2290001 -5.2529998 -1.766 0
-8.224 -5.2680001 -1.766 0
-8.2040005 -5.2919998 -1.766 0
-8.1890001 -5.3189998 -1.766 0
-8.1750002 -5.3470001 -1.767 0
-8.1630001 -5.3759999 -1.768 0
-8.1479998 -5.402 -1.768 0
-8.1330004 -5.4289999 -1.7690001 0
-8.1169996 -5.4559999 -1.7690001 0
-8.1120005 -5.4710002 -1.77 0
-8.0979996 -5.4980001 -1.771 0
-8.085 -5.527 -1.772 0
-8.0699997 -5.5539999 -1.772 0
-8.0469999 -5.5760002 -1.771 0
-8.0310001 -5.6020002 -1.771 0
-8.0139999 -5.6269999 -1.771 0
-8.0129995 -5.645 -1.773 0
-8.0050001 -5.677 -1.776 0
-7.9879999 -5.704 -1.776 0
-7.9780002 -5.7340002 -1.778 0
-7.96 -5.7589998 -1.778 0
-7.9450002 -5.7870002 -1.779 0
-7.9289999 -5.8130002 -1.779 0
-7.9260001 -5.8299999 -1.78 0
-7.9000001 -5.849 -1.779 0
-7.914 -5.8979998 -1.7869999 0
-7.8959999 -5.9229999 -1.7869999 0
-7.875 -5.947 -1.786 0
-7.8600001 -5.974 -1.7869999 0
-7.8429999 -6 -1.7869999 0
-7.836 -6.0149999 -1.788 0
-7.8249998 -6.0450001 -1.79 0
-7.8000002 -6.0650001 -1.788 0
-7.7820001 -6.0910001 -1.789 0
-7.7690001 -6.1199999 -1.79 0
-7.7490001 -6.1430001 -1.79 0
-7.737 -6.1739998 -1.7920001 0
-7.7379999 -6.1939998 -1.795 0
-7.7179999 -6.2189999 -1.795 0
-7.7059999 -6.2490001 -1.796 0
-7.6900001 -6.276 -1.7970001 0
-7.6750002 -6.3039999 -1.798 0
-7.6620002 -6.3340001 -1.8 0
-7.6230001 -6.342 -1.795 0
-7.6370001 -6.3740001 -1.801 0
-7.5999999 -6.3839998 -1.7970001 0
-7.6090002 -6.4320002 -1.804 0
-7.5630002 -6.434 -1.798 0
-7.553 -6.467 -1.801 0.029999999
-7.54 -6.4970002 -1.803 0.029999999
-7.5110002 -6.513 -1.8 0.029999999
-7.4949999 -6.54 -1.801 0.029999999
-7.4829998 -6.5510001 -1.801 0.029999999
-7.4710002 -6.5819998 -1.803 0.029999999
-7.454 -6.6079998 -1.804 0.029999999
-7.4400001 -6.638 -1.806 0.029999999
-7.4239998 -6.665 -1.807 0.029999999
-7.4190001 -6.7030001 -1.811 0.07
-7.408 -6.7350001 -1.814 0.039999999
-7.4070001 -6.756 -1.817 0.07
-7.3969998 -6.79 -1.8200001 0.039999999
-7.3790002 -6.816 -1.8200001 0.07
-7.3660002 -6.8470001 -1.823 0.039999999
-7.3449998 -6.8699999 -1.823 0.07
-7.3210001 -6.8920002 -1.822 0.079999998
-7.3150001 -6.9299998 -1.826 0.090000004
-7.2919998 -6.9289999 -1.823 0.16
-7.277 -6.9590001 -1.825 0.16
-7.2550001 -6.9819999 -1.825 0.039999999
-7.2319999 -7.0029998 -1.825 0.13
-7.2140002 -7.0300002 -1.826 0.20999999
-7.1810002 -7.0419998 -1.823 0.18000001
-7.1420002 -7.0479999 -1.818 0.17
-7.1259999 -7.0549998 -1.817 0.17
-7.0999999 -7.073 -1.816 0.18000001
-7.0650001 -7.0819998 -1.812 0.17
-7.033 -7.0949998 -1.8099999 0.16
-7.0100002 -7.1160002 -1.809 0.17
-6.9889998 -7.1389999 -1.8099999 0.039999999
-6.954 -7.1479998 -1.806 0.07
-6.9369998 -7.1529999 -1.8049999 0.079999998
-6.9180002 -7.178 -1.806 0.079999998
-6.8940001 -7.198 -1.8049999 0.14
-5.3940001 -5.6599998 -1.3890001 0.18000001
-5.223 -5.5139999 -1.346 0.25
-5.1869998 -5.5100002 -1.341 0.31999999
-5.171 -5.5279999 -1.341 0.33000001
-5.1669998 -5.5419998 -1.3430001 0.34999999
-5.1490002 -5.5560002 -1.342 0.41
-5.1659999 -5.6100001 -1.352 0.28
-5.2340002 -5.7210002 -1.377 0.36000001
-5.2090001 -5.73 -1.375 0.30000001
-5.2199998 -5.7789998 -1.383 0.25
-6.6500001 -7.4190001 -1.804 0.17
-6.612 -7.4229999 -1.8 0.17
-6.586 -7.4180002 -1.796 0.16
-6.559 -7.434 -1.795 0.16
-6.52 -7.4369998 -1.79 0.16
-6.4920001 -7.4510002 -1.789 0.16
-6.4590001 -7.461 -1.786 0.039999999
-6.4200001 -7.4629998 -1.7819999 0.079999998
-6.3870001 -7.4720001 -1.779 0.079999998
-6.375 -7.4819999 -1.779 0.16
-6.3340001 -7.4809999 -1.773 0.16
-6.303 -7.4910002 -1.771 0.16
-6.2729998 -7.5040002 -1.7690001 0.16
-6.2319999 -7.5019999 -1.7640001 0.16
-6.197 -7.5079999 -1.76 0.16
-6.1719999 -7.526 -1.76 0.16
-6.145 -7.5170002 -1.755 0.16
-6.118 -7.5320001 -1.7539999 0.16
-6.092 -7.5479999 -1.753 0.17
-6.0510001 -7.546 -1.748 0.16
-6.0219998 -7.559 -1.747 0.17
-5.9920001 -7.5700002 -1.745 0.17
-5.9549999 -7.572 -1.7410001 0.17
-5.9400001 -7.5760002 -1.739 0.18000001
-5.9159999 -7.5949998 -1.739 0.18000001
-5.8779998 -7.5949998 -1.735 0.18000001
-5.8530002 -7.612 -1.734 0.18000001
-5.8189998 -7.6170001 -1.7309999 0.18000001
-5.7849998 -7.6220002 -1.728 0.090000004
-5.7540002 -7.6300001 -1.726 0.090000004
-5.7290001 -7.6220002 -1.722 0.090000004
-5.7010002 -7.6350002 -1.72 0.090000004
-5.6669998 -7.6389999 -1.717 0.090000004
-5.6409998 -7.6550002 -1.717 0.090000004
-5.6040001 -7.6539998 -1.712 0.079999998
-5.5760002 -7.6669998 -1.711 0.079999998
-5.546 -7.6760001 -1.709 0.090000004
-5.5310001 -7.6799998 -1.7079999 0.090000004
-5.493 -7.678 -1.7029999 0.090000004
-5.4650002 -7.6900001 -1.702 0.079999998
-5.4320002 -7.6950002 -1.699 0.090000004
-5.402 -7.704 -1.697 0.079999998
-5.368 -7.7059999 -1.694 0.090000004
-5.342 -7.7199998 -1.693 0.090000004
-5.3249998 -7.7220001 -1.692 0.090000004
-5.2919998 -7.7249999 -1.688 0.090000004
-5.2589998 -7.7290001 -1.6849999 0.090000004
-5.2290001 -7.737 -1.684 0.079999998
-5.1919999 -7.7340002 -1.679 0.079999998
-5.1659999 -7.7490001 -1.679 0.079999998
-5.1350002 -7.7550001 -1.676 0.079999998
-5.1069999 -7.7649999 -1.675 0.079999998
-5.086 -7.7589998 -1.6720001 0.079999998
-5.0539999 -7.7639999 -1.669 0.079999998
-5.0229998 -7.77 -1.6670001 0.079999998
-4.9949999 -7.7789998 -1.665 0.16
-4.9679999 -7.7909999 -1.665 0.16
-4.9369998 -7.7969999 -1.6619999 0.18000001
-4.9060001 -7.802 -1.66 0.17
-4.8870001 -7.7979999 -1.6569999 0.090000004
-4.862 -7.8140001 -1.6569999 0.079999998
-4.835 -7.8239999 -1.656 0.079999998
-4.8000002 -7.822 -1.652 0.079999998
-4.7670002 -7.8239999 -1.649 0.090000004
-4.7399998 -7.8340001 -1.648 0.079999998
-4.7069998 -7.835 -1.645 0.079999998
-4.677 -7.8410001 -1.643 0.16
-4.6570001 -7.835 -1.64 0.039999999
-4.6290002 -7.8449998 -1.6390001 0.079999998
-4.605 -7.8590002 -1.6390001 0.079999998
-4.573 -7.862 -1.636 0.16
-4.5450001 -7.8709998 -1.635 0.16
-4.5100002 -7.8660002 -1.631 0.16
-4.5009999 -7.8800001 -1.633 0.16
-4.4710002 -7.8839998 -1.63 0.039999999
-4.4419999 -7.8909998 -1.6289999 0.079999998
-4.415 -7.9000001 -1.628 0.15000001
-4.3860002 -7.9070001 -1.626 0.039999999
-4.3509998 -7.902 -1.622 0.14
-4.3309999 -7.9260001 -1.624 0.2
-4.3109999 -7.9169998 -1.6210001 0.17
-4.2950001 -7.948 -1.625 0.23999999
-4.2639999 -7.9489999 -1.622 0.1
-4.2350001 -7.9559999 -1.62 0.090000004
-4.2010002 -7.9510002 -1.617 0.079999998
-4.1719999 -7.9580002 -1.615 0.15000001
-4.1399999 -7.9569998 -1.612 0.16
-4.131 -7.9699998 -1.614 0.16
-4.0949998 -7.9619999 -1.609 0.039999999
-4.0710001 -7.9770002 -1.609 0.07
-4.0419998 -7.9809999 -1.608 0.16
-4.0159998 -7.9920001 -1.607 0.16
-3.9890001 -8.0010004 -1.6059999 0.16
-3.9590001 -8.0039997 -1.604 0.16
-3.9300001 -8.0080004 -1.603 0.17
-3.9189999 -8.0179996 -1.603 0.17
-3.8870001 -8.0159998 -1.6 0.17
-3.8629999 -8.0299997 -1.601 0.18000001
-3.835 -8.0360003 -1.6 0.18000001
-3.8050001 -8.0380001 -1.597 0.18000001
-3.7739999 -8.0389996 -1.595 0.039999999
-3.7460001 -8.0439997 -1.5930001 0.15000001
-3.73 -8.0419998 -1.592 0.050000001
-3.694 -8.0310001 -1.587 0.14
-3.6689999 -8.0439997 -1.587 0.050000001
-3.642 -8.0500002 -1.586 0.14
-3.6099999 -8.0469999 -1.5829999 0.050000001
-3.5799999 -8.0480003 -1.581 0.14
-3.5569999 -8.0649996 -1.582 0.050000001
-3.5439999 -8.0699997 -1.582 0.15000001
-3.51 -8.0609999 -1.5779999 0.050000001
-3.4860001 -8.0740004 -1.5779999 0.14
-3.457 -8.0780001 -1.577 0.050000001
-3.431 -8.0869999 -1.576 0.16
-3.4070001 -8.099 -1.577 0.050000001
-3.375 -8.0959997 -1.574 0.15000001
-3.3640001 -8.1049995 -1.574 0.050000001
-3.336 -8.1099997 -1.573 0.14
-3.309 -8.1160002 -1.573 0.050000001
-3.279 -8.1160002 -1.5700001 0.14
-3.257 -8.1350002 -1.572 0.18000001
-3.2279999 -8.1339998 -1.5700001 0.18000001
-3.201 -8.1409998 -1.569 0.17
-3.1860001 -8.1400003 -1.568 0.039999999
-3.145 -8.1120005 -1.5599999 0.16
-3.1259999 -8.1379995 -1.563 0.050000001
-3.0999999 -8.1479998 -1.563 0.15000001
-3.069 -8.1409998 -1.5599999 0.050000001
-3.0439999 -8.1540003 -1.561 0.15000001
-3.02 -8.1680002 -1.562 0.050000001
-2.9860001 -8.1529999 -1.557 0.14
-2.98 -8.1759996 -1.5599999 0.050000001
-2.948 -8.1689997 -1.557 0.15000001
-2.921 -8.1739998 -1.556 0.050000001
-2.8970001 -8.1890001 -1.557 0.15000001
-2.868 -8.1890001 -1.5549999 0.050000001
-2.8369999 -8.1829996 -1.552 0.16
-2.8169999 -8.2089996 -1.556 0.050000001
-2.7969999 -8.191 -1.551 0.14
-2.7679999 -8.1899996 -1.549 0.050000001
-2.7449999 -8.2080002 -1.551 0.15000001
-2.717 -8.2069998 -1.549 0.050000001
-2.6900001 -8.2119999 -1.549 0.16
-2.6619999 -8.2150002 -1.5470001 0.050000001
-2.6340001 -8.2180004 -1.546 0.15000001
-2.6240001 -8.2309999 -1.548 0.050000001
-2.595 -8.2279997 -1.546 0.14
-2.5669999 -8.2309999 -1.545 0.050000001
-2.5420001 -8.2410002 -1.545 0.16
-2.5120001 -8.2329998 -1.5420001 0.050000001
-2.4849999 -8.2379999 -1.541 0.15000001
-2.461 -8.2530003 -1.543 0.19
-2.448 -8.257 -1.543 0.1
-2.4189999 -8.2550001 -1.541 0.090000004
-2.3929999 -8.2620001 -1.541 0.090000004
-2.365 -8.2620001 -1.539 0.090000004
-2.3399999 -8.2740002 -1.54 0.14
-2.313 -8.2749996 -1.539 0.050000001
-2.286 -8.2799997 -1.539 0.14
-2.2720001 -8.2799997 -1.538 0.050000001
-2.244 -8.2799997 -1.536 0.16
-2.22 -8.2939997 -1.538 0.050000001
-2.1889999 -8.2799997 -1.534 0.15000001
-2.165 -8.2950001 -1.535 0.050000001
-2.1400001 -8.3050003 -1.536 0.17
-2.1099999 -8.2989998 -1.533 0.050000001
-2.095 -8.2939997 -1.5319999 0.15000001
-2.0699999 -8.3030005 -1.5319999 0.050000001
-2.046 -8.3210001 -1.535 0.14
-2.017 -8.316 -1.5319999 0.050000001
-1.99 -8.3179998 -1.531 0.16
-1.964 -8.323 -1.531 0.050000001
-1.934 -8.3149996 -1.528 0.16
-1.924 -8.3280001 -1.53 0.19
-1.898 -8.3360004 -1.531 0.090000004
-1.869 -8.3280001 -1.528 0.14
-1.842 -8.3299999 -1.527 0.050000001
-1.814 -8.3299999 -1.526 0.16
-1.79 -8.3459997 -1.528 0.050000001
-1.763 -8.349 -1.528 0.14
-1.748 -8.3380003 -1.525 0.050000001
-1.722 -8.3459997 -1.525 0.16
-1.696 -8.3509998 -1.525 0.2
-1.669 -8.3529997 -1.525 0.1
-1.643 -8.3620005 -1.525 0.16
-1.617 -8.3690004 -1.526 0.050000001
-1.587 -8.3549995 -1.522 0.16
-1.576 -8.3649998 -1.524 0.050000001
-1.548 -8.3620005 -1.522 0.16
-1.523 -8.3760004 -1.524 0.18000001
-1.4960001 -8.375 -1.523 0.090000004
-1.47 -8.3839998 -1.524 0.15000001
-1.442 -8.3789997 -1.522 0.050000001
-1.415 -8.375 -1.52 0.16
-1.401 -8.3739996 -1.5190001 0.050000001
-1.374 -8.3719997 -1.518 0.15000001
-1.348 -8.3809996 -1.5190001 0.050000001
-1.319 -8.3649998 -1.515 0.16
-1.294 -8.3830004 -1.518 0.19
-1.266 -8.3730001 -1.515 0.090000004
-1.238 -8.368 -1.513 0.16
-1.227 -8.3830004 -1.516 0.23
-1.199 -8.3769999 -1.5140001 0.1
-1.1720001 -8.3730001 -1.512 0.15000001
-1.145 -8.3710003 -1.511 0.050000001
-1.117 -8.3590002 -1.508 0.16
-1.091 -8.3660002 -1.5089999 0.2
-1.064 -8.3640003 -1.508 0.1
-1.0369999 -8.3610001 -1.507 0.16
-1.023 -8.3570004 -1.506 0.050000001
-0.99599999 -8.3509998 -1.5039999 0.16
-0.97000003 -8.3579998 -1.5039999 0.2
-0.94300002 -8.3549995 -1.503 0.1
-0.91500002 -8.3459997 -1.501 0.16
-0.88999999 -8.3529997 -1.502 0.20999999
-0.86500001 -8.3730001 -1.505 0
-0.60799998 -5.9000001 -1.024 0.050000001
-0.58999997 -5.9060001 -1.025 0.12
-0.56900001 -5.881 -1.0190001 0.059999999
-0.55000001 -5.881 -1.0190001 0.18000001
-0.53200001 -5.8899999 -1.021 0.2
-0.514 -5.8979998 -1.022 0
-0.49700001 -5.9089999 -1.024 0
-0.67500001 -8.3140001 -1.49 0.1
-0.648 -8.3059998 -1.489 0.1
-0.62199998 -8.3039999 -1.488 0.16
-0.59600002 -8.3059998 -1.488 0.050000001
-0.56900001 -8.3000002 -1.4859999 0.17
-0.54400003 -8.3129997 -1.489 0.11
-0.51700002 -8.3070002 -1.487 0.14
-0.50400001 -8.3059998 -1.487 0.050000001
-0.477 -8.2959995 -1.484 0.17
-0.45100001 -8.3030005 -1.485 0.11
-0.42500001 -8.2910004 -1.483 0.18000001
-0.39899999 -8.2959995 -1.484 0.11
-0.37099999 -8.2679996 -1.478 0.18000001
-0.34599999 -8.2939997 -1.483 0.11
-0.333 -8.2849998 -1.4809999 0.15000001
-0.30599999 -8.2690001 -1.478 0.050000001
-0.28099999 -8.2889996 -1.4809999 0.14
-0.255 -8.2860003 -1.4809999 0.20999999
-0.228 -8.2629995 -1.476 0.1
-0.20200001 -8.2659998 -1.476 0.15000001
-0.176 -8.2629995 -1.476 0.050000001
-0.163 -8.2510004 -1.473 0.16
-0.13699999 -8.2550001 -1.474 0.050000001
-0.111 -8.2379999 -1.471 0.16
-0.085000001 -8.2340002 -1.47 0.18000001
-0.059 -8.2410002 -1.471 0.1
-0.033 -8.2410002 -1.471 0.15000001
-0.0080000004 -8.2250004 -1.4680001 0.050000001
0.017999999 -8.2270002 -1.4680001 0.16
0.030999999 -8.2290001 -1.469 0.2
0.057 -8.2270002 -1.4680001 0.090000004
0.082999997 -8.2309999 -1.469 0.15000001
0.109 -8.2259998 -1.4680001 0.050000001
0.134 -8.21 -1.465 0.16
0.16 -8.2180004 -1.467 0.050000001
0.17299999 -8.2040005 -1.464 0.14
0.199 -8.217 -1.467 0.050000001
0.22400001 -8.2019997 -1.464 0.15000001
0.25 -8.2110004 -1.466 0.050000001
0.27599999 -8.2089996 -1.466 0.14
0.30199999 -8.2080002 -1.466 0.050000001
0.32699999 -8.2010002 -1.465 0.16
0.354 -8.21 -1.466 0.18000001
0.36700001 -8.2130003 -1.467 0.17
0.391 -8.1899996 -1.4630001 0.16
0.417 -8.191 -1.4630001 0.18000001
0.442 -8.1800003 -1.462 0.18000001
0.46799999 -8.1719999 -1.46 0.039999999
0.49200001 -8.1549997 -1.457 0.14
0.51899999 -8.1669998 -1.46 0.19
0.53200001 -8.1689997 -1.46 0.18000001
0.55699998 -8.1549997 -1.4579999 0.16
0.583 -8.1669998 -1.461 0.16
0.60799998 -8.1549997 -1.459 0.17
0.634 -8.151 -1.4579999 0.17
0.65899998 -8.1420002 -1.457 0.18000001
0.685 -8.1429996 -1.4579999 0.17
0.69700003 -8.1420002 -1.4579999 0.17
0.72299999 -8.1379995 -1.457 0.17
0.74699998 -8.1199999 -1.454 0.039999999
0.77200001 -8.1099997 -1.4529999 0.14
0.79900002 -8.125 -1.456 0.050000001
0.82300001 -8.1070004 -1.4529999 0.16
0.84799999 -8.1059999 -1.454 0.050000001
0.861 -8.1049995 -1.454 0.16
0.88599998 -8.0959997 -1.452 0.050000001
0.91299999 -8.1049995 -1.455 0.16
0.93800002 -8.0979996 -1.454 0.19
0.963 -8.0909996 -1.4529999 0.1
0.98799998 -8.0900002 -1.454 0.14
1.012 -8.0740004 -1.451 0.050000001
1.024 -8.0679998 -1.45 0.16
1.049 -8.059 -1.449 0.050000001
1.073 -8.0459995 -1.447 0.15000001
1.099 -8.0480003 -1.448 0.19
1.124 -8.0450001 -1.448 0.090000004
1.151 -8.0489998 -1.45 0.15000001
1.174 -8.0319996 -1.447 0.050000001
1.1849999 -8.0220003 -1.446 0.16
1.212 -8.026 -1.447 0.19
1.235 -8.0129995 -1.4450001 0.090000004
1.261 -8.0129995 -1.446 0.15000001
1.2869999 -8.0139999 -1.447 0.050000001
1.308 -7.9850001 -1.442 0.17
1.337 -8 -1.446 0.11
1.35 -8.0039997 -1.447 0.15000001
1.372 -7.9819999 -1.444 0.050000001
1.396 -7.9699998 -1.442 0.17
1.423 -7.9770002 -1.444 0.050000001
1.446 -7.961 -1.442 0.16
1.473 -7.9660001 -1.444 0.18000001
1.499 -7.9689999 -1.446 0.1
1.5089999 -7.954 -1.443 0.15000001
1.533 -7.941 -1.441 0.050000001
1.558 -7.9400001 -1.442 0.14
1.582 -7.927 -1.441 0.050000001
1.603 -7.9070001 -1.438 0.15000001
1.63 -7.9099998 -1.439 0.18000001
1.654 -7.901 -1.438 0.090000004
1.682 -7.9089999 -1.441 0.15000001
1.692 -7.8990002 -1.439 0.050000001
1.7180001 -7.8990002 -1.441 0.16
1.742 -7.8860002 -1.439 0.050000001
1.763 -7.8670001 -1.436 0.16
1.789 -7.8649998 -1.437 0.050000001
1.812 -7.8520002 -1.436 0.15000001
1.8380001 -7.8520002 -1.437 0.050000001
1.85 -7.8470001 -1.436 0.15000001
1.876 -7.8470001 -1.438 0.19
1.9 -7.8410001 -1.438 0.090000004
1.924 -7.8309999 -1.437 0.15000001
1.948 -7.823 -1.436 0.050000001
1.973 -7.8189998 -1.437 0.16
1.999 -7.8169999 -1.438 0.050000001
2.0120001 -7.8169999 -1.438 0.15000001
2.0369999 -7.8109999 -1.438 0.19
2.063 -7.8119998 -1.4400001 0.18000001
2.0880001 -7.8049998 -1.4400001 0.17
2.112 -7.7989998 -1.4400001 0.18000001
2.1340001 -7.783 -1.438 0.090000004
2.1589999 -7.7800002 -1.439 0.15000001
2.171 -7.7729998 -1.438 0.050000001
2.1930001 -7.7579999 -1.436 0.16
2.2179999 -7.7550001 -1.437 0.2
2.2449999 -7.756 -1.439 0.1
2.27 -7.75 -1.439 0.16
2.29 -7.73 -1.436 0.050000001
2.313 -7.7189999 -1.436 0.16
2.332 -7.7379999 -1.4400001 0.19
2.355 -7.7249999 -1.439 0.090000004
2.3770001 -7.7119999 -1.438 0.090000004
2.402 -7.7059999 -1.438 0.15000001
2.424 -7.691 -1.437 0.050000001
2.448 -7.6820002 -1.436 0.16
2.4779999 -7.6929998 -1.4400001 0.2
2.4879999 -7.6830001 -1.439 0.090000004
2.5150001 -7.6830001 -1.441 0.14
2.5369999 -7.6690001 -1.439 0.050000001
2.5569999 -7.6500001 -1.437 0.16
2.582 -7.6459999 -1.438 0.050000001
2.609 -7.645 -1.439 0.15000001
2.632 -7.6329999 -1.439 0.050000001
2.642 -7.625 -1.438 0.15000001
2.668 -7.6220002 -1.439 0.050000001
2.6860001 -7.5970001 -1.436 0.15000001
2.714 -7.598 -1.438 0.050000001
2.7409999 -7.599 -1.439 0.15000001
2.7620001 -7.5830002 -1.438 0.050000001
2.786 -7.5739999 -1.438 0.15000001
2.8 -7.5749998 -1.439 0.18000001
2.8180001 -7.552 -1.436 0.18000001
2.8469999 -7.5570002 -1.439 0.18000001
2.8729999 -7.5539999 -1.4400001 0.18000001
2.892 -7.5320001 -1.438 0.17
2.9159999 -7.5250001 -1.438 0.18000001
2.9389999 -7.5139999 -1.438 0.17
2.9460001 -7.4980001 -1.4349999 0.18000001
2.98 -7.513 -1.4400001 0.18000001
2.9990001 -7.4920001 -1.438 0.090000004
3.016 -7.4679999 -1.4349999 0.090000004
3.05 -7.4840002 -1.4400001 0.14
3.0669999 -7.4580002 -1.437 0.050000001
3.0869999 -7.441 -1.4349999 0.17
3.102 -7.4439998 -1.437 0.050000001
3.1240001 -7.4299998 -1.436 0.14
3.1429999 -7.4109998 -1.434 0.050000001
3.171 -7.4120002 -1.436 0.16
3.197 -7.408 -1.438 0.11
3.2130001 -7.381 -1.434 0.18000001
3.227 -7.3520002 -1.4299999 0.18000001
3.2449999 -7.3610001 -1.433 0.059999999
3.2690001 -7.3520002 -1.433 0.17
3.299 -7.3559999 -1.436 0.050000001
3.3210001 -7.3439999 -1.436 0.15000001
3.3429999 -7.3299999 -1.4349999 0.050000001
3.3670001 -7.323 -1.436 0.15000001
3.3900001 -7.3130002 -1.436 0.18000001
3.404 -7.3130002 -1.437 0.17
3.4159999 -7.2789998 -1.432 0.14
3.421 -7.2309999 -1.424 0.30000001
3.447 -7.2249999 -1.425 0.38
3.4719999 -7.2199998 -1.427 0.27000001
3.516 -7.2529998 -1.436 0.19
3.543 -7.2509999 -1.438 0.17
3.5739999 -7.2550001 -1.441 0.18000001
3.5829999 -7.2459998 -1.441 0.17
3.5969999 -7.217 -1.437 0.17
3.6259999 -7.2179999 -1.439 0.16
3.642 -7.1929998 -1.436 0.039999999
3.6630001 -7.178 -1.436 0.14
3.687 -7.1700001 -1.436 0.050000001
3.71 -7.1599998 -1.437 0.15000001
3.7219999 -7.1560001 -1.437 0.050000001
3.7390001 -7.1339998 -1.4349999 0.15000001
3.7620001 -7.1220002 -1.4349999 0.050000001
3.7839999 -7.1100001 -1.4349999 0.15000001
3.819 -7.1209998 -1.4400001 0.19
3.8380001 -7.1030002 -1.439 0.18000001
3.8599999 -7.0910001 -1.439 0.18000001
3.869 -7.0799999 -1.438 0.18000001
3.892 -7.0700002 -1.438 0.18000001
3.911 -7.052 -1.437 0.18000001
3.9319999 -7.0380001 -1.436 0.18000001
3.957 -7.0310001 -1.438 0.17
3.977 -7.013 -1.436 0.16
4.0050001 -7.013 -1.439 0.039999999
4.013 -7.0009999 -1.438 0.15000001
4.0349998 -6.9889998 -1.438 0.050000001
4.059 -6.9790001 -1.439 0.14
4.0830002 -6.9699998 -1.439 0.050000001
4.105 -6.9569998 -1.439 0.15000001
4.1199999 -6.9320002 -1.437 0.20999999
4.1409998 -6.9180002 -1.436 0.22
4.1570001 -6.9190001 -1.438 0.050000001
4.1859999 -6.9200001 -1.441 0.14
4.21 -6.9099998 -1.442 0.22
4.2319999 -6.8969998 -1.442 0.20999999
4.2470002 -6.8730001 -1.4400001 0.12
4.277 -6.8730001 -1.443 0.17
4.296 -6.855 -1.442 0.12
4.3049998 -6.8460002 -1.441 0.15000001
4.3319998 -6.8410001 -1.443 0.050000001
4.3530002 -6.8260002 -1.443 0.16
4.3790002 -6.8200002 -1.4450001 0.18000001
4.3959999 -6.8000002 -1.443 0.16
4.4109998 -6.776 -1.441 0.16
4.434 -6.7639999 -1.441 0.039999999
4.4429998 -6.7550001 -1.441 0.079999998
4.4590001 -6.7329998 -1.439 0.15000001
4.4790001 -6.7179999 -1.439 0.039999999
4.5019999 -6.7069998 -1.439 0.07
4.5180001 -6.684 -1.438 0.16
4.5310001 -6.6589999 -1.4349999 0.039999999
4.5510001 -6.6430001 -1.4349999 0.079999998
4.5570002 -6.6290002 -1.433 0.039999999
4.579 -6.6170001 -1.433 0.07
4.5780001 -6.572 -1.426 0.11
4.5599999 -6.5029998 -1.413 0.059999999
4.6020002 -6.5190001 -1.42 0.16
4.6069999 -6.4819999 -1.415 0.14
4.6220002 -6.461 -1.414 0.30000001
4.6820002 -6.5219998 -1.4299999 0.039999999
4.717 -6.5279999 -1.4349999 0.079999998
4.7309999 -6.5040002 -1.433 0.039999999
4.7509999 -6.4889998 -1.433 0.07
4.7789998 -6.4829998 -1.4349999 0.079999998
4.8039999 -6.4749999 -1.436 0.090000004
4.8060002 -6.4359999 -1.431 0.15000001
4.8340001 -6.4520001 -1.436 0.050000001
4.8309999 -6.4050002 -1.429 0.14
4.8559999 -6.3969998 -1.4299999 0.19
4.855 -6.355 -1.424 0.16
4.8520002 -6.3099999 -1.4170001 0.16
4.8779998 -6.302 -1.419 0.17
4.9190001 -6.3130002 -1.425 0.039999999
4.9190001 -6.2930002 -1.4220001 0.079999998
4.9530001 -6.296 -1.427 0.090000004
4.9660001 -6.2709999 -1.424 0
4.9400001 -6.1989999 -1.41 0.059999999
4.4190001 -5.5139999 -1.244 0.2
4.3979998 -5.4530001 -1.232 0.14
4.4039998 -5.4260001 -1.229 0.30000001
4.4060001 -5.4109998 -1.227 0
2.684 -3.2909999 -0.69800001 0
2.6670001 -3.25 -0.68900001 0.02
2.7049999 -3.2739999 -0.69800001 0
2.697 -3.2449999 -0.69300002 0
2.697 -3.224 -0.68900001 0
2.737 -3.25 -0.69800001 0
4.474 -5.2550001 -1.212 0.039999999
4.4759998 -5.2399998 -1.21 0.079999998
4.4990001 -5.2340002 -1.212 0.20999999
4.5019999 -5.2049999 -1.2079999 0.28999999
4.5209999 -5.1939998 -1.209 0.16
4.54 -5.1820002 -1.21 0.30000001
4.5510001 -5.1620002 -1.2079999 0.23
4.5710001 -5.152 -1.209 0.23999999
4.5890002 -5.1550002 -1.212 0.28999999
4.5809999 -5.1149998 -1.205 0.28999999
4.5970001 -5.0999999 -1.205 0.27000001
4.612 -5.0840001 -1.205 0.28
4.6240001 -5.0650001 -1.2029999 0.30000001
4.638 -5.0489998 -1.2029999 0.28999999
4.6500001 -5.0310001 -1.202 0.28
4.658 -5.0229998 -1.202 0.28999999
4.6729999 -5.007 -1.202 0.31
4.6830001 -4.987 -1.2 0.31
4.6880002 -4.961 -1.197 0.28
4.717 -4.96 -1.201 0.28999999
4.7360001 -4.9489999 -1.202 0.31999999
4.7589998 -4.9419999 -1.204 0.28999999
4.7750001 -4.9429998 -1.206 0.28
4.8109999 -4.9489999 -1.212 0.30000001
4.836 -4.9429998 -1.214 0.30000001
4.8709998 -4.948 -1.22 0.30000001
4.895 -4.941 -1.222 0.28999999
4.9239998 -4.9390001 -1.226 0.27000001
4.9559999 -4.9400001 -1.23 0.28999999
4.9840002 -4.9520001 -1.2359999 0.31
5.0079999 -4.9439998 -1.238 0.31999999
5.0650001 -4.9689999 -1.249 0.20999999
5.822 -5.6700001 -1.449 0.25
5.8410001 -5.6529999 -1.449 0.25
5.8470001 -5.6240001 -1.446 0.22
5.901 -5.6399999 -1.456 0.13
5.9050002 -5.6259999 -1.455 0.19
5.9310002 -5.6160002 -1.457 0.11
5.9520001 -5.5999999 -1.4579999 0.17
5.9590001 -5.572 -1.455 0.12
5.9840002 -5.5599999 -1.457 0.17
5.9520001 -5.4959998 -1.444 0.13
5.9679999 -5.4759998 -1.444 0.33000001
6.0159998 -5.5019999 -1.454 0.25
6.046 -5.4949999 -1.457 0.25999999
6.0640001 -5.4759998 -1.457 0.19
6.0970001 -5.4710002 -1.462 0.14
6.0929999 -5.434 -1.456 0.2
6.125 -5.428 -1.46 0.11
6.145 -5.4109998 -1.461 0.17
6.1609998 -5.408 -1.4630001 0.12
6.1659999 -5.3779998 -1.46 0.18000001
6.1960001 -5.3699999 -1.4630001 0.12
6.2129998 -5.3509998 -1.4630001 0.18000001
6.2319999 -5.3319998 -1.4630001 0.12
6.2470002 -5.3109999 -1.4630001 0.18000001
6.2709999 -5.2979999 -1.465 0.12
6.2670002 -5.2779999 -1.462 0.19
6.2839999 -5.2579999 -1.462 0.16
6.302 -5.2399998 -1.462 0.25999999
6.2950001 -5.2010002 -1.457 0.23
6.3099999 -5.1799998 -1.456 0.14
6.336 -5.1680002 -1.4579999 0.28999999
6.3499999 -5.1469998 -1.4579999 0.20999999
6.3280001 -5.112 -1.451 0.2
6.3249998 -5.0780001 -1.446 0.38
6.3410001 -5.0580001 -1.446 0.28
6.4390001 -5.1020002 -1.466 0.28999999
6.4580002 -5.0840001 -1.467 0.19
6.48 -5.0689998 -1.4680001 0.12
6.4850001 -5.04 -1.466 0.19
6.5089998 -5.0419998 -1.47 0.11
6.5180001 -5.0170002 -1.4680001 0.18000001
6.5419998 -5.0019999 -1.47 0.11
6.5500002 -4.9759998 -1.4680001 0.18000001
6.5339999 -4.9310002 -1.46 0.14
6.5819998 -4.9349999 -1.4680001 0.30000001
6.6090002 -4.9229999 -1.471 0.20999999
6.5900002 -4.8930001 -1.465 0.14
6.638 -4.8959999 -1.473 0.31999999
6.6659999 -4.8850002 -1.476 0.25
6.658 -4.8470001 -1.47 0.17
6.6919999 -4.8390002 -1.474 0.25999999
6.704 -4.816 -1.474 0.18000001
6.7319999 -4.8039999 -1.477 0.23999999
6.7270002 -4.7839999 -1.474 0.17
6.7659998 -4.7800002 -1.479 0.25
6.776 -4.7550001 -1.478 0.19
6.7940001 -4.7360001 -1.479 0.12
6.8039999 -4.7119999 -1.478 0.2
6.783 -4.6659999 -1.47 0.14
6.829 -4.6659999 -1.477 0.28999999
6.829 -4.6500001 -1.475 0.16
6.875 -4.6500001 -1.482 0.25999999
6.8720002 -4.6160002 -1.478 0.18000001
6.914 -4.6129999 -1.485 0.23999999
6.9169998 -4.5840001 -1.482 0.16
6.9429998 -4.5689998 -1.485 0.25
6.9569998 -4.5479999 -1.485 0.17
6.9840002 -4.5489998 -1.489 0.25
6.973 -4.5120001 -1.484 0.20999999
6.9679999 -4.4770002 -1.479 0.20999999
7.02 -4.4790001 -1.488 0.27000001
7.0159998 -4.4460001 -1.484 0.17
7.0760002 -4.4530001 -1.494 0.23999999
7.0770001 -4.4219999 -1.4910001 0.17
7.0840001 -4.4109998 -1.4910001 0.25
7.1009998 -4.3909998 -1.492 0.18000001
7.1420002 -4.3850002 -1.498 0
7.1539998 -4.3610001 -1.498 0.050000001
4.8940001 -2.9719999 -0.98400003 0.15000001
4.9060001 -2.9590001 -0.98500001 0.13
4.9219999 -2.947 -0.986 0.039999999
7.1820002 -4.256 -1.492 0.12
7.2010002 -4.2519999 -1.495 0.20999999
7.2259998 -4.2360001 -1.497 0.1
7.2280002 -4.2069998 -1.495 0.19
7.2709999 -4.2010002 -1.501 0.050000001
7.2670002 -4.1690001 -1.498 0.12
7.2909999 -4.152 -1.5 0.20999999
7.3039999 -4.1290002 -1.5 0.18000001
5.184 -2.9070001 -1.026 0.17
7.3439999 -4.0450001 -1.499 0.07
5.1820002 -2.8210001 -1.018 0.059999999
7.4130001 -3.993 -1.506 0
7.415 -3.9790001 -1.505 0
5.3639998 -2.865 -1.053 0.029999999
5.3990002 -2.862 -1.059 0.15000001
5.4299998 -2.8559999 -1.064 0.050000001
5.441 -2.8399999 -1.064 0.11
7.5489998 -3.8989999 -1.52 0.14
7.5770001 -3.8829999 -1.524 0.27000001
7.5599999 -3.8599999 -1.5190001 0
5.4949999 -2.7920001 -1.069 0
5.5089998 -2.777 -1.0700001 0.13
7.6560001 -3.8180001 -1.5319999 0.15000001
7.677 -3.7980001 -1.534 0.30000001
7.6729999 -3.766 -1.53 0.19
7.7199998 -3.7590001 -1.538 0.13
7.71 -3.74 -1.535 0.18000001
7.7140002 -3.7119999 -1.533 0.23999999
7.737 -3.6930001 -1.535 0.38999999
7.7360001 -3.6630001 -1.533 0.16
5.7410002 -2.704 -1.104 0.30000001
5.664 -2.6459999 -1.086 0.17
5.6529999 -2.619 -1.082 0.15000001
5.6500001 -2.6070001 -1.08 0.090000004
5.6620002 -2.5910001 -1.081 0.039999999
7.8779998 -3.5650001 -1.55 0.13
7.8860002 -3.5380001 -1.549 0.17
7.8990002 -3.5139999 -1.549 0.13
7.8829999 -3.4779999 -1.544 0.18000001
7.9169998 -3.4630001 -1.549 0.20999999
7.9260001 -3.4519999 -1.549 0.090000004
7.9320002 -3.425 -1.548 0
6.1370001 -2.6329999 -1.168 0.11
6.1669998 -2.6229999 -1.173 0.050000001
6.1110001 -2.5769999 -1.16 0.029999999
6.1230001 -2.5599999 -1.16 0.11
6.1129999 -2.533 -1.1569999 0.050000001
6.1570001 -2.54 -1.165 0.14
6.1279998 -2.506 -1.1569999 0.050000001
8.059 -3.257 -1.558 0.07
8.04 -3.22 -1.552 0.13
8.0299997 -3.187 -1.548 0.25999999
8.1009998 -3.1849999 -1.561 0.27000001
8.1070004 -3.158 -1.5599999 0.16
8.1169996 -3.1470001 -1.561 0.050000001
6.4239998 -2.474 -1.2079999 0.12
6.4229999 -2.45 -1.206 0
6.4450002 -2.4349999 -1.21 0.12
8.1730003 -3.0510001 -1.5650001 0.2
8.1929998 -3.03 -1.567 0
6.5970001 -2.421 -1.2359999 0.050000001
6.5879998 -2.4059999 -1.233 0.079999998
6.6100001 -2.391 -1.2359999 0
8.2340002 -2.9419999 -1.568 0.090000004
8.2299995 -2.9119999 -1.566 0
7.2059999 -2.527 -1.354 0.1
7.145 -2.4809999 -1.34 0.1
7.1550002 -2.4590001 -1.34 0.11
8.2150002 -2.8050001 -1.556 0.13
8.25 -2.7880001 -1.562 0.18000001
8.29 -2.773 -1.568 0
8.2110004 -2.7179999 -1.55 0.02
6.9720001 -2.2880001 -1.296 0
7.0890002 -2.3010001 -1.319 0
6.9770002 -2.2409999 -1.294 0
7.04 -2.2490001 -1.306 0.02
8.2959995 -2.6159999 -1.5599999 0.07
8.3360004 -2.5999999 -1.566 0.18000001
8.3339996 -2.5710001 -1.564 0
8.335 -2.5420001 -1.563 0
6.744 -2.039 -1.24 0
6.7800002 -2.027 -1.2460001 0
7.4260001 -2.204 -1.375 0
7.4120002 -2.175 -1.3710001 0
7.4219999 -2.1530001 -1.372 0
7.4710002 -2.141 -1.38 0.1
8.3889999 -2.3729999 -1.563 0.25999999
8.408 -2.349 -1.566 0.25
8.3830004 -2.3139999 -1.559 0.13
7.7340002 -2.1240001 -1.428 0.15000001
7.7150002 -2.0929999 -1.423 0.090000004
7.8239999 -2.096 -1.444 0.14
8.4309998 -2.2279999 -1.564 0.15000001
8.46 -2.207 -1.568 0.14
8.4729996 -2.1819999 -1.569 0.16
8.4840002 -2.1559999 -1.5700001 0.20999999
8.4700003 -2.1389999 -1.567 0.18000001
8.5089998 -2.1199999 -1.573 0.13
8.5139999 -2.0929999 -1.573 0.18000001
8.5299997 -2.069 -1.575 0.11
8.5129995 -2.036 -1.5700001 0.19
8.5120001 -2.0079999 -1.569 0.14
8.5220003 -1.982 -1.569 0.28999999
8.533 -1.97 -1.571 0.18000001
8.552 -1.946 -1.574 0.23999999
8.5550003 -1.919 -1.573 0.20999999
8.5360003 -1.886 -1.568 0.23
8.5089998 -1.853 -1.562 0.34999999
8.5450001 -1.832 -1.568 0.34
8.5509996 -1.8049999 -1.568 0.27000001
8.5120001 -1.77 -1.559 0.31
8.5129995 -1.756 -1.558 0.31
8.526 -1.7309999 -1.5599999 0.31999999
8.5200005 -1.702 -1.558 0.31
8.5530005 -1.6799999 -1.563 0.36000001
8.5889997 -1.659 -1.569 0.30000001
8.6000004 -1.633 -1.5700001 0.28999999
8.5869999 -1.603 -1.567 0.30000001
8.5780001 -1.587 -1.5650001 0.31
8.6059999 -1.564 -1.569 0.44999999
8.6619997 -1.546 -1.579 0.33000001
8.6700001 -1.52 -1.58 0.28999999
8.6750002 -1.492 -1.58 0.33000001
8.6949997 -1.4680001 -1.5829999 0.28999999
8.6739998 -1.436 -1.5779999 0.28999999
8.665 -1.421 -1.576 0.30000001
8.6750002 -1.3940001 -1.577 0.20999999
8.7130003 -1.372 -1.5829999 0.23999999
8.698 -1.342 -1.579 0.16
8.7370005 -1.3200001 -1.586 0.25999999
8.7290001 -1.291 -1.584 0.16
8.7510004 -1.266 -1.587 0.27000001
8.7559996 -1.253 -1.5880001 0.17
8.7819996 -1.228 -1.592 0.23999999
8.8149996 -1.204 -1.598 0.17
8.875 -1.184 -1.609 0.23
8.9219999 -1.161 -1.617 0.20999999
8.9580002 -1.138 -1.624 0.28999999
9.0100002 -1.115 -1.633 0.28999999
9.0469999 -1.105 -1.64 0.25999999
9.0860004 -1.081 -1.647 0.16
9.1540003 -1.0599999 -1.66 0.28
9.1940002 -1.035 -1.6670001 0.20999999
9.1800003 -1.0039999 -1.663 0.28999999
9.2299995 -0.98000002 -1.673 0.23
9.2329998 -0.95099998 -1.673 0.38
9.2069998 -0.93400002 -1.6670001 0.33000001
9.2530003 -0.90899998 -1.676 0.31999999
9.2460003 -0.87900001 -1.674 0.30000001
9.25 -0.85000002 -1.674 0.31999999
9.2819996 -0.824 -1.6799999 0.31999999
9.2810001 -0.79400003 -1.679 0.34999999
9.2889996 -0.76599997 -1.6799999 0.33000001
9.302 -0.75199997 -1.682 0.40000001
9.3059998 -0.72299999 -1.683 0.30000001
9.3439999 -0.69599998 -1.6900001 0.37
9.3559999 -0.667 -1.692 0.31
9.3809996 -0.63999999 -1.696 0.41999999
9.3950005 -0.611 -1.698 0.27000001
9.4440002 -0.58399999 -1.707 0.13
9.4359999 -0.55400002 -1.706 0.18000001
9.4390001 -0.53899997 -1.706 0.050000001
9.427 -0.509 -1.7029999 0
7.4770002 -0.38499999 -1.325 0
7.7150002 -0.373 -1.3710001 0
7.7459998 -0.34999999 -1.377 0
7.7509999 -0.32499999 -1.378 0.029999999
7.777 -0.31400001 -1.382 0.16
7.7919998 -0.28999999 -1.385 0.2
7.7610002 -0.26499999 -1.3789999 0.22
7.77 -0.241 -1.381 0
7.849 -0.21799999 -1.396 0.13
8.0459995 -0.198 -1.434 0
8.1190004 -0.17399999 -1.448 0
8.1210003 -0.161 -1.448 0.1
8.0749998 -0.13500001 -1.439 0.14
8.052 -0.109 -1.4349999 0.30000001
8.0299997 -0.083999999 -1.4299999 0.34999999
8.0150003 -0.057999998 -1.427 0.37
8.0190001 -0.033 -1.428 0.38999999
8.0349998 -0.0080000004 -1.431 0.30000001
7.973 0.0049999999 -1.513 0.07
8.6020002 0.030999999 -1.642 0.13
8.8540001 0.059 -1.693 0.28999999
8.8520002 0.086000003 -1.693 0.28999999
8.8640003 0.1 -1.6950001 0.25999999
8.8559999 0.12800001 -1.694 0.19
8.8470001 0.156 -1.692 0.28999999
8.8450003 0.184 -1.692 0.34
8.8459997 0.211 -1.692 0.31999999
8.849 0.23899999 -1.693 0.22
8.8520002 0.26699999 -1.694 0.25999999
8.8540001 0.28099999 -1.694 0.20999999
8.8529997 0.30899999 -1.694 0.27000001
8.8620005 0.33700001 -1.696 0.23999999
8.8509998 0.36500001 -1.694 0.23
8.8459997 0.39199999 -1.693 0.18000001
8.8450003 0.41999999 -1.693 0.28
8.8649998 0.449 -1.698 0.20999999
8.842 0.46200001 -1.693 0.17
8.8570004 0.49000001 -1.697 0.28
8.8509998 0.51800001 -1.696 0.23999999
8.8400002 0.54500002 -1.694 0.18000001
8.8500004 0.574 -1.696 0.27000001
8.8520002 0.602 -1.697 0.20999999
8.8479996 0.62900001 -1.697 0.23
8.842 0.65700001 -1.696 0.17
8.8389997 0.671 -1.6950001 0.23999999
8.8369999 0.69800001 -1.6950001 0.2
8.8339996 0.72600001 -1.6950001 0.22
8.8319998 0.75400001 -1.6950001 0.2
8.8319998 0.78200001 -1.696 0.12
8.8269997 0.80900002 -1.6950001 0.18000001
8.8149996 0.83600003 -1.693 0.050000001
8.8140001 0.85000002 -1.693 0.18000001
8.8170004 0.87800002 -1.6950001 0.2
8.8059998 0.90499997 -1.693 0.090000004
8.8129997 0.93400002 -1.6950001 0.18000001
8.8100004 0.96200001 -1.6950001 0.20999999
8.8050003 0.98900002 -1.6950001 0.19
8.802 1.017 -1.6950001 0.22
8.7889996 1.029 -1.692 0.19
8.7849998 1.057 -1.692 0.23
8.7880001 1.085 -1.693 0.19
8.7819996 1.112 -1.693 0.20999999
8.7790003 1.14 -1.693 0.19
8.7790003 1.168 -1.694 0.23
8.7679996 1.1950001 -1.692 0.18000001
8.7659998 1.2079999 -1.692 0.23999999
8.7749996 1.238 -1.6950001 0.18000001
8.7600002 1.2640001 -1.693 0.23999999
8.7639999 1.2920001 -1.694 0.19
8.7519999 1.319 -1.693 0.22
8.7550001 1.347 -1.694 0.2
8.7469997 1.374 -1.693 0.23999999
8.7469997 1.388 -1.694 0.2
8.743 1.416 -1.694 0.12
8.7379999 1.443 -1.694 0.20999999
8.7410002 1.472 -1.6950001 0.2
8.7309999 1.498 -1.694 0.23
8.7279997 1.526 -1.6950001 0.18000001
8.7189999 1.553 -1.694 0.23999999
8.7259998 1.568 -1.696 0.20999999
8.7159996 1.595 -1.6950001 0.12
8.7110004 1.622 -1.6950001 0.2
8.6960001 1.648 -1.693 0.18000001
8.7060003 1.678 -1.696 0.27000001
8.7030001 1.706 -1.696 0.20999999
8.6949997 1.733 -1.696 0.23999999
8.6789999 1.744 -1.693 0.40000001
8.6850004 1.773 -1.6950001 0.2
8.6800003 1.8 -1.6950001 0.25
8.6890001 1.831 -1.699 0.2
8.6870003 1.859 -1.7 0.25
8.6759996 1.885 -1.698 0.23
8.6809998 1.915 -1.701 0.18000001
8.6780005 1.928 -1.701 0.27000001
8.6739998 1.956 -1.701 0.23999999
8.6619997 1.982 -1.7 0.2
8.6669998 2.0120001 -1.702 0.25999999
8.6529999 2.0369999 -1.701 0.22
8.6680002 2.069 -1.705 0.20999999
8.6610003 2.0969999 -1.705 0.25
8.6599998 2.1110001 -1.706 0.19
8.6400003 2.135 -1.7029999 0.25
8.6409998 2.164 -1.704 0.23
8.6529999 2.1960001 -1.7079999 0.11
8.6330004 2.2190001 -1.706 0.20999999
8.6289997 2.247 -1.706 0.11
8.6169996 2.273 -1.705 0.20999999
8.6219997 2.289 -1.707 0.11
8.6110001 2.3150001 -1.706 0.2
8.6210003 2.3469999 -1.71 0.11
8.6230001 2.3759999 -1.712 0.2
8.6140003 2.4030001 -1.712 0.11
8.6169996 2.4330001 -1.714 0.17
8.6040001 2.4590001 -1.7130001 0.20999999
8.6040001 2.4879999 -1.714 0.2
